ply
format ascii 1.0
comment (C) Hongzhi Wu, Sep 2013.
element vertex 1112
property float x
property float y
property float z
property uchar red
property uchar green
property uchar blue
property uchar alpha
end_header
0 0 0 255 0 0 255 
0 0 0 0 255 0 255 
0 0 0 0 0 255 255 
0.1 0 0 255 0 0 255 
0 0.1 0 0 255 0 255 
0 0 0.1 0 0 255 255 
0.2 0 0 255 0 0 255 
0 0.2 0 0 255 0 255 
0 0 0.2 0 0 255 255 
0.3 0 0 255 0 0 255 
0 0.3 0 0 255 0 255 
0 0 0.3 0 0 255 255 
0.4 0 0 255 0 0 255 
0 0.4 0 0 255 0 255 
0 0 0.4 0 0 255 255 
0.5 0 0 255 0 0 255 
0 0.5 0 0 255 0 255 
0 0 0.5 0 0 255 255 
0.6 0 0 255 0 0 255 
0 0.6 0 0 255 0 255 
0 0 0.6 0 0 255 255 
0.7 0 0 255 0 0 255 
0 0.7 0 0 255 0 255 
0 0 0.7 0 0 255 255 
0.8 0 0 255 0 0 255 
0 0.8 0 0 255 0 255 
0 0 0.8 0 0 255 255 
0.9 0 0 255 0 0 255 
0 0.9 0 0 255 0 255 
0 0 0.9 0 0 255 255 
1 0 0 255 0 0 255 
0 1 0 0 255 0 255 
0 0 1 0 0 255 255 
1.1 0 0 255 0 0 255 
0 1.1 0 0 255 0 255 
0 0 1.1 0 0 255 255 
1.2 0 0 255 0 0 255 
0 1.2 0 0 255 0 255 
0 0 1.2 0 0 255 255 
1.3 0 0 255 0 0 255 
0 1.3 0 0 255 0 255 
0 0 1.3 0 0 255 255 
1.4 0 0 255 0 0 255 
0 1.4 0 0 255 0 255 
0 0 1.4 0 0 255 255 
1.5 0 0 255 0 0 255 
0 1.5 0 0 255 0 255 
0 0 1.5 0 0 255 255 
1.6 0 0 255 0 0 255 
0 1.6 0 0 255 0 255 
0 0 1.6 0 0 255 255 
1.7 0 0 255 0 0 255 
0 1.7 0 0 255 0 255 
0 0 1.7 0 0 255 255 
1.8 0 0 255 0 0 255 
0 1.8 0 0 255 0 255 
0 0 1.8 0 0 255 255 
1.9 0 0 255 0 0 255 
0 1.9 0 0 255 0 255 
0 0 1.9 0 0 255 255 
2 0 0 255 0 0 255 
0 2 0 0 255 0 255 
0 0 2 0 0 255 255 
2.1 0 0 255 0 0 255 
0 2.1 0 0 255 0 255 
0 0 2.1 0 0 255 255 
2.2 0 0 255 0 0 255 
0 2.2 0 0 255 0 255 
0 0 2.2 0 0 255 255 
2.3 0 0 255 0 0 255 
0 2.3 0 0 255 0 255 
0 0 2.3 0 0 255 255 
2.4 0 0 255 0 0 255 
0 2.4 0 0 255 0 255 
0 0 2.4 0 0 255 255 
2.5 0 0 255 0 0 255 
0 2.5 0 0 255 0 255 
0 0 2.5 0 0 255 255 
2.6 0 0 255 0 0 255 
0 2.6 0 0 255 0 255 
0 0 2.6 0 0 255 255 
2.7 0 0 255 0 0 255 
0 2.7 0 0 255 0 255 
0 0 2.7 0 0 255 255 
2.8 0 0 255 0 0 255 
0 2.8 0 0 255 0 255 
0 0 2.8 0 0 255 255 
2.9 0 0 255 0 0 255 
0 2.9 0 0 255 0 255 
0 0 2.9 0 0 255 255 
3 0 0 255 0 0 255 
0 3 0 0 255 0 255 
0 0 3 0 0 255 255 
3.1 0 0 255 0 0 255 
0 3.1 0 0 255 0 255 
0 0 3.1 0 0 255 255 
3.2 0 0 255 0 0 255 
0 3.2 0 0 255 0 255 
0 0 3.2 0 0 255 255 
3.3 0 0 255 0 0 255 
0 3.3 0 0 255 0 255 
0 0 3.3 0 0 255 255 
3.4 0 0 255 0 0 255 
0 3.4 0 0 255 0 255 
0 0 3.4 0 0 255 255 
3.5 0 0 255 0 0 255 
0 3.5 0 0 255 0 255 
0 0 3.5 0 0 255 255 
3.6 0 0 255 0 0 255 
0 3.6 0 0 255 0 255 
0 0 3.6 0 0 255 255 
3.7 0 0 255 0 0 255 
0 3.7 0 0 255 0 255 
0 0 3.7 0 0 255 255 
3.8 0 0 255 0 0 255 
0 3.8 0 0 255 0 255 
0 0 3.8 0 0 255 255 
3.9 0 0 255 0 0 255 
0 3.9 0 0 255 0 255 
0 0 3.9 0 0 255 255 
4 0 0 255 0 0 255 
0 4 0 0 255 0 255 
0 0 4 0 0 255 255 
4.1 0 0 255 0 0 255 
0 4.1 0 0 255 0 255 
0 0 4.1 0 0 255 255 
4.2 0 0 255 0 0 255 
0 4.2 0 0 255 0 255 
0 0 4.2 0 0 255 255 
4.3 0 0 255 0 0 255 
0 4.3 0 0 255 0 255 
0 0 4.3 0 0 255 255 
4.4 0 0 255 0 0 255 
0 4.4 0 0 255 0 255 
0 0 4.4 0 0 255 255 
4.5 0 0 255 0 0 255 
0 4.5 0 0 255 0 255 
0 0 4.5 0 0 255 255 
4.6 0 0 255 0 0 255 
0 4.6 0 0 255 0 255 
0 0 4.6 0 0 255 255 
4.7 0 0 255 0 0 255 
0 4.7 0 0 255 0 255 
0 0 4.7 0 0 255 255 
4.8 0 0 255 0 0 255 
0 4.8 0 0 255 0 255 
0 0 4.8 0 0 255 255 
4.9 0 0 255 0 0 255 
0 4.9 0 0 255 0 255 
0 0 4.9 0 0 255 255 
5 0 0 255 0 0 255 
0 5 0 0 255 0 255 
0 0 5 0 0 255 255 
5.1 0 0 255 0 0 255 
0 5.1 0 0 255 0 255 
0 0 5.1 0 0 255 255 
5.2 0 0 255 0 0 255 
0 5.2 0 0 255 0 255 
0 0 5.2 0 0 255 255 
5.3 0 0 255 0 0 255 
0 5.3 0 0 255 0 255 
0 0 5.3 0 0 255 255 
5.4 0 0 255 0 0 255 
0 5.4 0 0 255 0 255 
0 0 5.4 0 0 255 255 
5.5 0 0 255 0 0 255 
0 5.5 0 0 255 0 255 
0 0 5.5 0 0 255 255 
5.6 0 0 255 0 0 255 
0 5.6 0 0 255 0 255 
0 0 5.6 0 0 255 255 
5.7 0 0 255 0 0 255 
0 5.7 0 0 255 0 255 
0 0 5.7 0 0 255 255 
5.8 0 0 255 0 0 255 
0 5.8 0 0 255 0 255 
0 0 5.8 0 0 255 255 
5.9 0 0 255 0 0 255 
0 5.9 0 0 255 0 255 
0 0 5.9 0 0 255 255 
6 0 0 255 0 0 255 
0 6 0 0 255 0 255 
0 0 6 0 0 255 255 
6.1 0 0 255 0 0 255 
0 6.1 0 0 255 0 255 
0 0 6.1 0 0 255 255 
6.2 0 0 255 0 0 255 
0 6.2 0 0 255 0 255 
0 0 6.2 0 0 255 255 
6.3 0 0 255 0 0 255 
0 6.3 0 0 255 0 255 
0 0 6.3 0 0 255 255 
6.4 0 0 255 0 0 255 
0 6.4 0 0 255 0 255 
0 0 6.4 0 0 255 255 
6.5 0 0 255 0 0 255 
0 6.5 0 0 255 0 255 
0 0 6.5 0 0 255 255 
6.6 0 0 255 0 0 255 
0 6.6 0 0 255 0 255 
0 0 6.6 0 0 255 255 
6.7 0 0 255 0 0 255 
0 6.7 0 0 255 0 255 
0 0 6.7 0 0 255 255 
6.8 0 0 255 0 0 255 
0 6.8 0 0 255 0 255 
0 0 6.8 0 0 255 255 
6.9 0 0 255 0 0 255 
0 6.9 0 0 255 0 255 
0 0 6.9 0 0 255 255 
7 0 0 255 0 0 255 
0 7 0 0 255 0 255 
0 0 7 0 0 255 255 
7.1 0 0 255 0 0 255 
0 7.1 0 0 255 0 255 
0 0 7.1 0 0 255 255 
7.2 0 0 255 0 0 255 
0 7.2 0 0 255 0 255 
0 0 7.2 0 0 255 255 
7.3 0 0 255 0 0 255 
0 7.3 0 0 255 0 255 
0 0 7.3 0 0 255 255 
7.4 0 0 255 0 0 255 
0 7.4 0 0 255 0 255 
0 0 7.4 0 0 255 255 
7.5 0 0 255 0 0 255 
0 7.5 0 0 255 0 255 
0 0 7.5 0 0 255 255 
7.6 0 0 255 0 0 255 
0 7.6 0 0 255 0 255 
0 0 7.6 0 0 255 255 
7.7 0 0 255 0 0 255 
0 7.7 0 0 255 0 255 
0 0 7.7 0 0 255 255 
7.8 0 0 255 0 0 255 
0 7.8 0 0 255 0 255 
0 0 7.8 0 0 255 255 
7.9 0 0 255 0 0 255 
0 7.9 0 0 255 0 255 
0 0 7.9 0 0 255 255 
8 0 0 255 0 0 255 
0 8 0 0 255 0 255 
0 0 8 0 0 255 255 
8.1 0 0 255 0 0 255 
0 8.1 0 0 255 0 255 
0 0 8.1 0 0 255 255 
8.2 0 0 255 0 0 255 
0 8.2 0 0 255 0 255 
0 0 8.2 0 0 255 255 
8.3 0 0 255 0 0 255 
0 8.3 0 0 255 0 255 
0 0 8.3 0 0 255 255 
8.4 0 0 255 0 0 255 
0 8.4 0 0 255 0 255 
0 0 8.4 0 0 255 255 
8.5 0 0 255 0 0 255 
0 8.5 0 0 255 0 255 
0 0 8.5 0 0 255 255 
8.6 0 0 255 0 0 255 
0 8.6 0 0 255 0 255 
0 0 8.6 0 0 255 255 
8.7 0 0 255 0 0 255 
0 8.7 0 0 255 0 255 
0 0 8.7 0 0 255 255 
8.8 0 0 255 0 0 255 
0 8.8 0 0 255 0 255 
0 0 8.8 0 0 255 255 
8.9 0 0 255 0 0 255 
0 8.9 0 0 255 0 255 
0 0 8.9 0 0 255 255 
9 0 0 255 0 0 255 
0 9 0 0 255 0 255 
0 0 9 0 0 255 255 
9.1 0 0 255 0 0 255 
0 9.1 0 0 255 0 255 
0 0 9.1 0 0 255 255 
9.2 0 0 255 0 0 255 
0 9.2 0 0 255 0 255 
0 0 9.2 0 0 255 255 
9.3 0 0 255 0 0 255 
0 9.3 0 0 255 0 255 
0 0 9.3 0 0 255 255 
9.4 0 0 255 0 0 255 
0 9.4 0 0 255 0 255 
0 0 9.4 0 0 255 255 
9.5 0 0 255 0 0 255 
0 9.5 0 0 255 0 255 
0 0 9.5 0 0 255 255 
9.6 0 0 255 0 0 255 
0 9.6 0 0 255 0 255 
0 0 9.6 0 0 255 255 
9.7 0 0 255 0 0 255 
0 9.7 0 0 255 0 255 
0 0 9.7 0 0 255 255 
9.8 0 0 255 0 0 255 
0 9.8 0 0 255 0 255 
0 0 9.8 0 0 255 255 
9.9 0 0 255 0 0 255 
0 9.9 0 0 255 0 255 
0 0 9.9 0 0 255 255 
-155 75 -300 255 0 0 255 
-145 75 -300 255 255 255 255 
-135 75 -300 255 255 255 255 
-125 75 -300 255 255 255 255 
-115 75 -300 255 255 255 255 
-105 75 -300 255 255 255 255 
-95 75 -300 255 255 255 255 
-85 75 -300 255 255 255 255 
-75 75 -300 255 255 255 255 
-65 75 -300 255 255 255 255 
-55 75 -300 255 255 255 255 
-45 75 -300 255 255 255 255 
-35 75 -300 255 255 255 255 
-25 75 -300 255 255 255 255 
-15 75 -300 255 255 255 255 
-5 75 -300 255 255 255 255 
5 75 -300 255 255 255 255 
15 75 -300 255 255 255 255 
25 75 -300 255 255 255 255 
35 75 -300 255 255 255 255 
45 75 -300 255 255 255 255 
55 75 -300 255 255 255 255 
65 75 -300 255 255 255 255 
75 75 -300 255 255 255 255 
85 75 -300 255 255 255 255 
95 75 -300 255 255 255 255 
105 75 -300 255 255 255 255 
115 75 -300 255 255 255 255 
125 75 -300 255 255 255 255 
135 75 -300 255 255 255 255 
145 75 -300 255 255 255 255 
155 75 -300 255 255 255 255 
-155 65 -300 255 255 255 255 
-145 65 -300 255 255 255 255 
-135 65 -300 255 255 255 255 
-125 65 -300 255 255 255 255 
-115 65 -300 255 255 255 255 
-105 65 -300 255 255 255 255 
-95 65 -300 255 255 255 255 
-85 65 -300 255 255 255 255 
-75 65 -300 255 255 255 255 
-65 65 -300 255 255 255 255 
-55 65 -300 255 255 255 255 
-45 65 -300 255 255 255 255 
-35 65 -300 255 255 255 255 
-25 65 -300 255 255 255 255 
-15 65 -300 255 255 255 255 
-5 65 -300 255 255 255 255 
5 65 -300 255 255 255 255 
15 65 -300 255 255 255 255 
25 65 -300 255 255 255 255 
35 65 -300 255 255 255 255 
45 65 -300 255 255 255 255 
55 65 -300 255 255 255 255 
65 65 -300 255 255 255 255 
75 65 -300 255 255 255 255 
85 65 -300 255 255 255 255 
95 65 -300 255 255 255 255 
105 65 -300 255 255 255 255 
115 65 -300 255 255 255 255 
125 65 -300 255 255 255 255 
135 65 -300 255 255 255 255 
145 65 -300 255 255 255 255 
155 65 -300 255 255 255 255 
-155 55 -300 255 255 255 255 
-145 55 -300 255 255 255 255 
-135 55 -300 255 255 255 255 
-125 55 -300 255 255 255 255 
-115 55 -300 255 255 255 255 
-105 55 -300 255 255 255 255 
-95 55 -300 255 255 255 255 
-85 55 -300 255 255 255 255 
-75 55 -300 255 255 255 255 
-65 55 -300 255 255 255 255 
-55 55 -300 255 255 255 255 
-45 55 -300 255 255 255 255 
-35 55 -300 255 255 255 255 
-25 55 -300 255 255 255 255 
-15 55 -300 255 255 255 255 
-5 55 -300 255 255 255 255 
5 55 -300 255 255 255 255 
15 55 -300 255 255 255 255 
25 55 -300 255 255 255 255 
35 55 -300 255 255 255 255 
45 55 -300 255 255 255 255 
55 55 -300 255 255 255 255 
65 55 -300 255 255 255 255 
75 55 -300 255 255 255 255 
85 55 -300 255 255 255 255 
95 55 -300 255 255 255 255 
105 55 -300 255 255 255 255 
115 55 -300 255 255 255 255 
125 55 -300 255 255 255 255 
135 55 -300 255 255 255 255 
145 55 -300 255 255 255 255 
155 55 -300 255 255 255 255 
-155 45 -300 255 255 255 255 
-145 45 -300 255 255 255 255 
-135 45 -300 255 255 255 255 
-125 45 -300 255 255 255 255 
-115 45 -300 255 255 255 255 
-105 45 -300 255 255 255 255 
-95 45 -300 255 255 255 255 
-85 45 -300 255 255 255 255 
-75 45 -300 255 255 255 255 
-65 45 -300 255 255 255 255 
-55 45 -300 255 255 255 255 
-45 45 -300 255 255 255 255 
-35 45 -300 255 255 255 255 
-25 45 -300 255 255 255 255 
-15 45 -300 255 255 255 255 
-5 45 -300 255 255 255 255 
5 45 -300 255 255 255 255 
15 45 -300 255 255 255 255 
25 45 -300 255 255 255 255 
35 45 -300 255 255 255 255 
45 45 -300 255 255 255 255 
55 45 -300 255 255 255 255 
65 45 -300 255 255 255 255 
75 45 -300 255 255 255 255 
85 45 -300 255 255 255 255 
95 45 -300 255 255 255 255 
105 45 -300 255 255 255 255 
115 45 -300 255 255 255 255 
125 45 -300 255 255 255 255 
135 45 -300 255 255 255 255 
145 45 -300 255 255 255 255 
155 45 -300 255 255 255 255 
-155 35 -300 255 255 255 255 
-145 35 -300 255 255 255 255 
-135 35 -300 255 255 255 255 
-125 35 -300 255 255 255 255 
-115 35 -300 255 255 255 255 
-105 35 -300 255 255 255 255 
-95 35 -300 255 255 255 255 
-85 35 -300 255 255 255 255 
-75 35 -300 255 255 255 255 
-65 35 -300 255 255 255 255 
-55 35 -300 255 255 255 255 
-45 35 -300 255 255 255 255 
-35 35 -300 255 255 255 255 
-25 35 -300 255 255 255 255 
-15 35 -300 255 255 255 255 
-5 35 -300 255 255 255 255 
5 35 -300 255 255 255 255 
15 35 -300 255 255 255 255 
25 35 -300 255 255 255 255 
35 35 -300 255 255 255 255 
45 35 -300 255 255 255 255 
55 35 -300 255 255 255 255 
65 35 -300 255 255 255 255 
75 35 -300 255 255 255 255 
85 35 -300 255 255 255 255 
95 35 -300 255 255 255 255 
105 35 -300 255 255 255 255 
115 35 -300 255 255 255 255 
125 35 -300 255 255 255 255 
135 35 -300 255 255 255 255 
145 35 -300 255 255 255 255 
155 35 -300 255 255 255 255 
-155 25 -300 255 255 255 255 
-145 25 -300 255 255 255 255 
-135 25 -300 255 255 255 255 
-125 25 -300 255 255 255 255 
-115 25 -300 255 255 255 255 
-105 25 -300 255 255 255 255 
-95 25 -300 255 255 255 255 
-85 25 -300 255 255 255 255 
-75 25 -300 255 255 255 255 
-65 25 -300 255 255 255 255 
-55 25 -300 255 255 255 255 
-45 25 -300 255 255 255 255 
-35 25 -300 255 255 255 255 
-25 25 -300 255 255 255 255 
-15 25 -300 255 255 255 255 
-5 25 -300 255 255 255 255 
5 25 -300 255 255 255 255 
15 25 -300 255 255 255 255 
25 25 -300 255 255 255 255 
35 25 -300 255 255 255 255 
45 25 -300 255 255 255 255 
55 25 -300 255 255 255 255 
65 25 -300 255 255 255 255 
75 25 -300 255 255 255 255 
85 25 -300 255 255 255 255 
95 25 -300 255 255 255 255 
105 25 -300 255 255 255 255 
115 25 -300 255 255 255 255 
125 25 -300 255 255 255 255 
135 25 -300 255 255 255 255 
145 25 -300 255 255 255 255 
155 25 -300 255 255 255 255 
-155 15 -300 255 255 255 255 
-145 15 -300 255 255 255 255 
-135 15 -300 255 255 255 255 
-125 15 -300 255 255 255 255 
-115 15 -300 255 255 255 255 
-105 15 -300 255 255 255 255 
-95 15 -300 255 255 255 255 
-85 15 -300 255 255 255 255 
-75 15 -300 255 255 255 255 
-65 15 -300 255 255 255 255 
-55 15 -300 255 255 255 255 
-45 15 -300 255 255 255 255 
-35 15 -300 255 255 255 255 
-25 15 -300 255 255 255 255 
-15 15 -300 255 255 255 255 
-5 15 -300 255 255 255 255 
5 15 -300 255 255 255 255 
15 15 -300 255 255 255 255 
25 15 -300 255 255 255 255 
35 15 -300 255 255 255 255 
45 15 -300 255 255 255 255 
55 15 -300 255 255 255 255 
65 15 -300 255 255 255 255 
75 15 -300 255 255 255 255 
85 15 -300 255 255 255 255 
95 15 -300 255 255 255 255 
105 15 -300 255 255 255 255 
115 15 -300 255 255 255 255 
125 15 -300 255 255 255 255 
135 15 -300 255 255 255 255 
145 15 -300 255 255 255 255 
155 15 -300 255 255 255 255 
-155 5 -300 255 255 255 255 
-145 5 -300 255 255 255 255 
-135 5 -300 255 255 255 255 
-125 5 -300 255 255 255 255 
-115 5 -300 255 255 255 255 
-105 5 -300 255 255 255 255 
-95 5 -300 255 255 255 255 
-85 5 -300 255 255 255 255 
-75 5 -300 255 255 255 255 
-65 5 -300 255 255 255 255 
-55 5 -300 255 255 255 255 
-45 5 -300 255 255 255 255 
-35 5 -300 255 255 255 255 
-25 5 -300 255 255 255 255 
-15 5 -300 255 255 255 255 
-5 5 -300 255 255 255 255 
5 5 -300 255 255 255 255 
15 5 -300 255 255 255 255 
25 5 -300 255 255 255 255 
35 5 -300 255 255 255 255 
45 5 -300 255 255 255 255 
55 5 -300 255 255 255 255 
65 5 -300 255 255 255 255 
75 5 -300 255 255 255 255 
85 5 -300 255 255 255 255 
95 5 -300 255 255 255 255 
105 5 -300 255 255 255 255 
115 5 -300 255 255 255 255 
125 5 -300 255 255 255 255 
135 5 -300 255 255 255 255 
145 5 -300 255 255 255 255 
155 5 -300 255 255 255 255 
-155 -5 -300 255 255 255 255 
-145 -5 -300 255 255 255 255 
-135 -5 -300 255 255 255 255 
-125 -5 -300 255 255 255 255 
-115 -5 -300 255 255 255 255 
-105 -5 -300 255 255 255 255 
-95 -5 -300 255 255 255 255 
-85 -5 -300 255 255 255 255 
-75 -5 -300 255 255 255 255 
-65 -5 -300 255 255 255 255 
-55 -5 -300 255 255 255 255 
-45 -5 -300 255 255 255 255 
-35 -5 -300 255 255 255 255 
-25 -5 -300 255 255 255 255 
-15 -5 -300 255 255 255 255 
-5 -5 -300 255 255 255 255 
5 -5 -300 255 255 255 255 
15 -5 -300 255 255 255 255 
25 -5 -300 255 255 255 255 
35 -5 -300 255 255 255 255 
45 -5 -300 255 255 255 255 
55 -5 -300 255 255 255 255 
65 -5 -300 255 255 255 255 
75 -5 -300 255 255 255 255 
85 -5 -300 255 255 255 255 
95 -5 -300 255 255 255 255 
105 -5 -300 255 255 255 255 
115 -5 -300 255 255 255 255 
125 -5 -300 255 255 255 255 
135 -5 -300 255 255 255 255 
145 -5 -300 255 255 255 255 
155 -5 -300 255 255 255 255 
-155 -15 -300 255 255 255 255 
-145 -15 -300 255 255 255 255 
-135 -15 -300 255 255 255 255 
-125 -15 -300 255 255 255 255 
-115 -15 -300 255 255 255 255 
-105 -15 -300 255 255 255 255 
-95 -15 -300 255 255 255 255 
-85 -15 -300 255 255 255 255 
-75 -15 -300 255 255 255 255 
-65 -15 -300 255 255 255 255 
-55 -15 -300 255 255 255 255 
-45 -15 -300 255 255 255 255 
-35 -15 -300 255 255 255 255 
-25 -15 -300 255 255 255 255 
-15 -15 -300 255 255 255 255 
-5 -15 -300 255 255 255 255 
5 -15 -300 255 255 255 255 
15 -15 -300 255 255 255 255 
25 -15 -300 255 255 255 255 
35 -15 -300 255 255 255 255 
45 -15 -300 255 255 255 255 
55 -15 -300 255 255 255 255 
65 -15 -300 255 255 255 255 
75 -15 -300 255 255 255 255 
85 -15 -300 255 255 255 255 
95 -15 -300 255 255 255 255 
105 -15 -300 255 255 255 255 
115 -15 -300 255 255 255 255 
125 -15 -300 255 255 255 255 
135 -15 -300 255 255 255 255 
145 -15 -300 255 255 255 255 
155 -15 -300 255 255 255 255 
-155 -25 -300 255 255 255 255 
-145 -25 -300 255 255 255 255 
-135 -25 -300 255 255 255 255 
-125 -25 -300 255 255 255 255 
-115 -25 -300 255 255 255 255 
-105 -25 -300 255 255 255 255 
-95 -25 -300 255 255 255 255 
-85 -25 -300 255 255 255 255 
-75 -25 -300 255 255 255 255 
-65 -25 -300 255 255 255 255 
-55 -25 -300 255 255 255 255 
-45 -25 -300 255 255 255 255 
-35 -25 -300 255 255 255 255 
-25 -25 -300 255 255 255 255 
-15 -25 -300 255 255 255 255 
-5 -25 -300 255 255 255 255 
5 -25 -300 255 255 255 255 
15 -25 -300 255 255 255 255 
25 -25 -300 255 255 255 255 
35 -25 -300 255 255 255 255 
45 -25 -300 255 255 255 255 
55 -25 -300 255 255 255 255 
65 -25 -300 255 255 255 255 
75 -25 -300 255 255 255 255 
85 -25 -300 255 255 255 255 
95 -25 -300 255 255 255 255 
105 -25 -300 255 255 255 255 
115 -25 -300 255 255 255 255 
125 -25 -300 255 255 255 255 
135 -25 -300 255 255 255 255 
145 -25 -300 255 255 255 255 
155 -25 -300 255 255 255 255 
-155 -35 -300 255 255 255 255 
-145 -35 -300 255 255 255 255 
-135 -35 -300 255 255 255 255 
-125 -35 -300 255 255 255 255 
-115 -35 -300 255 255 255 255 
-105 -35 -300 255 255 255 255 
-95 -35 -300 255 255 255 255 
-85 -35 -300 255 255 255 255 
-75 -35 -300 255 255 255 255 
-65 -35 -300 255 255 255 255 
-55 -35 -300 255 255 255 255 
-45 -35 -300 255 255 255 255 
-35 -35 -300 255 255 255 255 
-25 -35 -300 255 255 255 255 
-15 -35 -300 255 255 255 255 
-5 -35 -300 255 255 255 255 
5 -35 -300 255 255 255 255 
15 -35 -300 255 255 255 255 
25 -35 -300 255 255 255 255 
35 -35 -300 255 255 255 255 
45 -35 -300 255 255 255 255 
55 -35 -300 255 255 255 255 
65 -35 -300 255 255 255 255 
75 -35 -300 255 255 255 255 
85 -35 -300 255 255 255 255 
95 -35 -300 255 255 255 255 
105 -35 -300 255 255 255 255 
115 -35 -300 255 255 255 255 
125 -35 -300 255 255 255 255 
135 -35 -300 255 255 255 255 
145 -35 -300 255 255 255 255 
155 -35 -300 255 255 255 255 
-155 -45 -300 255 255 255 255 
-145 -45 -300 255 255 255 255 
-135 -45 -300 255 255 255 255 
-125 -45 -300 255 255 255 255 
-115 -45 -300 255 255 255 255 
-105 -45 -300 255 255 255 255 
-95 -45 -300 255 255 255 255 
-85 -45 -300 255 255 255 255 
-75 -45 -300 255 255 255 255 
-65 -45 -300 255 255 255 255 
-55 -45 -300 255 255 255 255 
-45 -45 -300 255 255 255 255 
-35 -45 -300 255 255 255 255 
-25 -45 -300 255 255 255 255 
-15 -45 -300 255 255 255 255 
-5 -45 -300 255 255 255 255 
5 -45 -300 255 255 255 255 
15 -45 -300 255 255 255 255 
25 -45 -300 255 255 255 255 
35 -45 -300 255 255 255 255 
45 -45 -300 255 255 255 255 
55 -45 -300 255 255 255 255 
65 -45 -300 255 255 255 255 
75 -45 -300 255 255 255 255 
85 -45 -300 255 255 255 255 
95 -45 -300 255 255 255 255 
105 -45 -300 255 255 255 255 
115 -45 -300 255 255 255 255 
125 -45 -300 255 255 255 255 
135 -45 -300 255 255 255 255 
145 -45 -300 255 255 255 255 
155 -45 -300 255 255 255 255 
-155 -55 -300 255 255 255 255 
-145 -55 -300 255 255 255 255 
-135 -55 -300 255 255 255 255 
-125 -55 -300 255 255 255 255 
-115 -55 -300 255 255 255 255 
-105 -55 -300 255 255 255 255 
-95 -55 -300 255 255 255 255 
-85 -55 -300 255 255 255 255 
-75 -55 -300 255 255 255 255 
-65 -55 -300 255 255 255 255 
-55 -55 -300 255 255 255 255 
-45 -55 -300 255 255 255 255 
-35 -55 -300 255 255 255 255 
-25 -55 -300 255 255 255 255 
-15 -55 -300 255 255 255 255 
-5 -55 -300 255 255 255 255 
5 -55 -300 255 255 255 255 
15 -55 -300 255 255 255 255 
25 -55 -300 255 255 255 255 
35 -55 -300 255 255 255 255 
45 -55 -300 255 255 255 255 
55 -55 -300 255 255 255 255 
65 -55 -300 255 255 255 255 
75 -55 -300 255 255 255 255 
85 -55 -300 255 255 255 255 
95 -55 -300 255 255 255 255 
105 -55 -300 255 255 255 255 
115 -55 -300 255 255 255 255 
125 -55 -300 255 255 255 255 
135 -55 -300 255 255 255 255 
145 -55 -300 255 255 255 255 
155 -55 -300 255 255 255 255 
-155 -65 -300 255 255 255 255 
-145 -65 -300 255 255 255 255 
-135 -65 -300 255 255 255 255 
-125 -65 -300 255 255 255 255 
-115 -65 -300 255 255 255 255 
-105 -65 -300 255 255 255 255 
-95 -65 -300 255 255 255 255 
-85 -65 -300 255 255 255 255 
-75 -65 -300 255 255 255 255 
-65 -65 -300 255 255 255 255 
-55 -65 -300 255 255 255 255 
-45 -65 -300 255 255 255 255 
-35 -65 -300 255 255 255 255 
-25 -65 -300 255 255 255 255 
-15 -65 -300 255 255 255 255 
-5 -65 -300 255 255 255 255 
5 -65 -300 255 255 255 255 
15 -65 -300 255 255 255 255 
25 -65 -300 255 255 255 255 
35 -65 -300 255 255 255 255 
45 -65 -300 255 255 255 255 
55 -65 -300 255 255 255 255 
65 -65 -300 255 255 255 255 
75 -65 -300 255 255 255 255 
85 -65 -300 255 255 255 255 
95 -65 -300 255 255 255 255 
105 -65 -300 255 255 255 255 
115 -65 -300 255 255 255 255 
125 -65 -300 255 255 255 255 
135 -65 -300 255 255 255 255 
145 -65 -300 255 255 255 255 
155 -65 -300 255 255 255 255 
-155 -75 -300 255 255 255 255 
-145 -75 -300 255 255 255 255 
-135 -75 -300 255 255 255 255 
-125 -75 -300 255 255 255 255 
-115 -75 -300 255 255 255 255 
-105 -75 -300 255 255 255 255 
-95 -75 -300 255 255 255 255 
-85 -75 -300 255 255 255 255 
-75 -75 -300 255 255 255 255 
-65 -75 -300 255 255 255 255 
-55 -75 -300 255 255 255 255 
-45 -75 -300 255 255 255 255 
-35 -75 -300 255 255 255 255 
-25 -75 -300 255 255 255 255 
-15 -75 -300 255 255 255 255 
-5 -75 -300 255 255 255 255 
5 -75 -300 255 255 255 255 
15 -75 -300 255 255 255 255 
25 -75 -300 255 255 255 255 
35 -75 -300 255 255 255 255 
45 -75 -300 255 255 255 255 
55 -75 -300 255 255 255 255 
65 -75 -300 255 255 255 255 
75 -75 -300 255 255 255 255 
85 -75 -300 255 255 255 255 
95 -75 -300 255 255 255 255 
105 -75 -300 255 255 255 255 
115 -75 -300 255 255 255 255 
125 -75 -300 255 255 255 255 
135 -75 -300 255 255 255 255 
145 -75 -300 255 255 255 255 
155 -75 -300 255 255 255 255 
-13.3623 98.5327 -306.744 255 0 0 255 
-13.3623 98.5327 -306.744 0 255 0 255 
-13.3623 98.5327 -306.744 0 0 255 255 
-13.3611 98.4941 -306.652 255 0 0 255 
-13.2623 98.5297 -306.747 0 255 0 255 
-13.3585 98.6249 -306.706 0 0 255 255 
-13.3599 98.4554 -306.56 255 0 0 255 
-13.1624 98.5267 -306.749 0 255 0 255 
-13.3547 98.7171 -306.667 0 0 255 255 
-13.3587 98.4168 -306.467 255 0 0 255 
-13.0625 98.5236 -306.752 0 255 0 255 
-13.351 98.8092 -306.629 0 0 255 255 
-13.3575 98.3782 -306.375 255 0 0 255 
-12.9626 98.5206 -306.754 0 255 0 255 
-13.3472 98.9015 -306.59 0 0 255 255 
-13.3563 98.3396 -306.283 255 0 0 255 
-12.8626 98.5176 -306.757 0 255 0 255 
-13.3435 98.9936 -306.551 0 0 255 255 
-13.3551 98.301 -306.191 255 0 0 255 
-12.7627 98.5146 -306.76 0 255 0 255 
-13.3397 99.0858 -306.513 0 0 255 255 
-13.3539 98.2624 -306.099 255 0 0 255 
-12.6628 98.5116 -306.762 0 255 0 255 
-13.3359 99.178 -306.474 0 0 255 255 
-13.3527 98.2238 -306.006 255 0 0 255 
-12.5629 98.5086 -306.765 0 255 0 255 
-13.3322 99.2702 -306.436 0 0 255 255 
-13.3515 98.1851 -305.914 255 0 0 255 
-12.463 98.5056 -306.767 0 255 0 255 
-13.3284 99.3624 -306.397 0 0 255 255 
-13.3503 98.1465 -305.822 255 0 0 255 
-12.363 98.5026 -306.77 0 255 0 255 
-13.3247 99.4546 -306.359 0 0 255 255 
-13.3491 98.1079 -305.73 255 0 0 255 
-12.2631 98.4996 -306.772 0 255 0 255 
-13.3209 99.5468 -306.32 0 0 255 255 
-13.3479 98.0693 -305.637 255 0 0 255 
-12.1632 98.4966 -306.775 0 255 0 255 
-13.3171 99.639 -306.282 0 0 255 255 
-13.3467 98.0307 -305.545 255 0 0 255 
-12.0633 98.4936 -306.777 0 255 0 255 
-13.3134 99.7312 -306.243 0 0 255 255 
-13.3455 97.9921 -305.453 255 0 0 255 
-11.9634 98.4906 -306.78 0 255 0 255 
-13.3096 99.8234 -306.205 0 0 255 255 
-13.3443 97.9535 -305.361 255 0 0 255 
-11.8634 98.4876 -306.783 0 255 0 255 
-13.3059 99.9156 -306.166 0 0 255 255 
-13.3431 97.9148 -305.268 255 0 0 255 
-11.7635 98.4846 -306.785 0 255 0 255 
-13.3021 100.008 -306.127 0 0 255 255 
-13.3419 97.8762 -305.176 255 0 0 255 
-11.6636 98.4815 -306.788 0 255 0 255 
-13.2983 100.1 -306.089 0 0 255 255 
-13.3407 97.8376 -305.084 255 0 0 255 
-11.5637 98.4785 -306.79 0 255 0 255 
-13.2946 100.192 -306.05 0 0 255 255 
-13.3395 97.799 -304.992 255 0 0 255 
-11.4637 98.4755 -306.793 0 255 0 255 
-13.2908 100.284 -306.012 0 0 255 255 
-13.3384 97.7604 -304.899 255 0 0 255 
-11.3638 98.4725 -306.795 0 255 0 255 
-13.2871 100.377 -305.973 0 0 255 255 
-13.3372 97.7218 -304.807 255 0 0 255 
-11.2639 98.4695 -306.798 0 255 0 255 
-13.2833 100.469 -305.935 0 0 255 255 
-13.336 97.6832 -304.715 255 0 0 255 
-11.164 98.4665 -306.8 0 255 0 255 
-13.2795 100.561 -305.896 0 0 255 255 
-13.3348 97.6445 -304.623 255 0 0 255 
-11.0641 98.4635 -306.803 0 255 0 255 
-13.2758 100.653 -305.858 0 0 255 255 
-13.3336 97.6059 -304.531 255 0 0 255 
-10.9641 98.4605 -306.806 0 255 0 255 
-13.272 100.745 -305.819 0 0 255 255 
-13.3324 97.5673 -304.438 255 0 0 255 
-10.8642 98.4575 -306.808 0 255 0 255 
-13.2683 100.838 -305.78 0 0 255 255 
-13.3312 97.5287 -304.346 255 0 0 255 
-10.7643 98.4545 -306.811 0 255 0 255 
-13.2645 100.93 -305.742 0 0 255 255 
-13.33 97.4901 -304.254 255 0 0 255 
-10.6644 98.4515 -306.813 0 255 0 255 
-13.2607 101.022 -305.703 0 0 255 255 
-13.3288 97.4515 -304.162 255 0 0 255 
-10.5644 98.4485 -306.816 0 255 0 255 
-13.257 101.114 -305.665 0 0 255 255 
-13.3276 97.4129 -304.069 255 0 0 255 
-10.4645 98.4454 -306.818 0 255 0 255 
-13.2532 101.206 -305.626 0 0 255 255 
-13.3264 97.3742 -303.977 255 0 0 255 
-10.3646 98.4424 -306.821 0 255 0 255 
-13.2495 101.299 -305.588 0 0 255 255 
-13.3252 97.3356 -303.885 255 0 0 255 
-10.2647 98.4394 -306.823 0 255 0 255 
-13.2457 101.391 -305.549 0 0 255 255 
-13.324 97.297 -303.793 255 0 0 255 
-10.1648 98.4364 -306.826 0 255 0 255 
-13.2419 101.483 -305.511 0 0 255 255 
-13.3228 97.2584 -303.7 255 0 0 255 
-10.0648 98.4334 -306.828 0 255 0 255 
-13.2382 101.575 -305.472 0 0 255 255 
-13.3216 97.2198 -303.608 255 0 0 255 
-9.96491 98.4304 -306.831 0 255 0 255 
-13.2344 101.667 -305.434 0 0 255 255 
-13.3204 97.1812 -303.516 255 0 0 255 
-9.86498 98.4274 -306.834 0 255 0 255 
-13.2306 101.759 -305.395 0 0 255 255 
-13.3192 97.1426 -303.424 255 0 0 255 
-9.76506 98.4244 -306.836 0 255 0 255 
-13.2269 101.852 -305.356 0 0 255 255 
-13.318 97.1039 -303.331 255 0 0 255 
-9.66514 98.4214 -306.839 0 255 0 255 
-13.2231 101.944 -305.318 0 0 255 255 
-13.3168 97.0653 -303.239 255 0 0 255 
-9.56522 98.4184 -306.841 0 255 0 255 
-13.2194 102.036 -305.279 0 0 255 255 
-13.3156 97.0267 -303.147 255 0 0 255 
-9.4653 98.4154 -306.844 0 255 0 255 
-13.2156 102.128 -305.241 0 0 255 255 
-13.3144 96.9881 -303.055 255 0 0 255 
-9.36537 98.4124 -306.846 0 255 0 255 
-13.2118 102.22 -305.202 0 0 255 255 
-13.3132 96.9495 -302.963 255 0 0 255 
-9.26545 98.4094 -306.849 0 255 0 255 
-13.2081 102.313 -305.164 0 0 255 255 
-13.3121 96.9109 -302.87 255 0 0 255 
-9.16553 98.4063 -306.851 0 255 0 255 
-13.2043 102.405 -305.125 0 0 255 255 
-13.3109 96.8723 -302.778 255 0 0 255 
-9.06561 98.4033 -306.854 0 255 0 255 
-13.2006 102.497 -305.087 0 0 255 255 
-13.3097 96.8336 -302.686 255 0 0 255 
-8.96569 98.4003 -306.857 0 255 0 255 
-13.1968 102.589 -305.048 0 0 255 255 
-13.3085 96.795 -302.594 255 0 0 255 
-8.86576 98.3973 -306.859 0 255 0 255 
-13.193 102.681 -305.01 0 0 255 255 
-13.3073 96.7564 -302.501 255 0 0 255 
-8.76584 98.3943 -306.862 0 255 0 255 
-13.1893 102.774 -304.971 0 0 255 255 
-13.3061 96.7178 -302.409 255 0 0 255 
-8.66592 98.3913 -306.864 0 255 0 255 
-13.1855 102.866 -304.932 0 0 255 255 
-13.3049 96.6792 -302.317 255 0 0 255 
-8.566 98.3883 -306.867 0 255 0 255 
-13.1818 102.958 -304.894 0 0 255 255 
-13.3037 96.6406 -302.225 255 0 0 255 
-8.46608 98.3853 -306.869 0 255 0 255 
-13.178 103.05 -304.855 0 0 255 255 
-13.3025 96.602 -302.132 255 0 0 255 
-8.36615 98.3823 -306.872 0 255 0 255 
-13.1742 103.142 -304.817 0 0 255 255 
-13.3013 96.5633 -302.04 255 0 0 255 
-8.26623 98.3793 -306.874 0 255 0 255 
-13.1705 103.235 -304.778 0 0 255 255 
-13.3001 96.5247 -301.948 255 0 0 255 
-8.16631 98.3763 -306.877 0 255 0 255 
-13.1667 103.327 -304.74 0 0 255 255 
-13.2989 96.4861 -301.856 255 0 0 255 
-8.06639 98.3733 -306.88 0 255 0 255 
-13.163 103.419 -304.701 0 0 255 255 
-13.2977 96.4475 -301.763 255 0 0 255 
-7.96646 98.3703 -306.882 0 255 0 255 
-13.1592 103.511 -304.663 0 0 255 255 
-13.2965 96.4089 -301.671 255 0 0 255 
-7.86654 98.3673 -306.885 0 255 0 255 
-13.1554 103.603 -304.624 0 0 255 255 
-13.2953 96.3703 -301.579 255 0 0 255 
-7.76662 98.3643 -306.887 0 255 0 255 
-13.1517 103.696 -304.586 0 0 255 255 
-13.2941 96.3317 -301.487 255 0 0 255 
-7.6667 98.3612 -306.89 0 255 0 255 
-13.1479 103.788 -304.547 0 0 255 255 
-13.2929 96.293 -301.395 255 0 0 255 
-7.56678 98.3582 -306.892 0 255 0 255 
-13.1442 103.88 -304.508 0 0 255 255 
-13.2917 96.2544 -301.302 255 0 0 255 
-7.46685 98.3552 -306.895 0 255 0 255 
-13.1404 103.972 -304.47 0 0 255 255 
-13.2905 96.2158 -301.21 255 0 0 255 
-7.36693 98.3522 -306.897 0 255 0 255 
-13.1366 104.064 -304.431 0 0 255 255 
-13.2893 96.1772 -301.118 255 0 0 255 
-7.26701 98.3492 -306.9 0 255 0 255 
-13.1329 104.157 -304.393 0 0 255 255 
-13.2881 96.1386 -301.026 255 0 0 255 
-7.16709 98.3462 -306.903 0 255 0 255 
-13.1291 104.249 -304.354 0 0 255 255 
-13.2869 96.1 -300.933 255 0 0 255 
-7.06717 98.3432 -306.905 0 255 0 255 
-13.1254 104.341 -304.316 0 0 255 255 
-13.2858 96.0614 -300.841 255 0 0 255 
-6.96724 98.3402 -306.908 0 255 0 255 
-13.1216 104.433 -304.277 0 0 255 255 
-13.2846 96.0227 -300.749 255 0 0 255 
-6.86732 98.3372 -306.91 0 255 0 255 
-13.1178 104.525 -304.239 0 0 255 255 
-13.2834 95.9841 -300.657 255 0 0 255 
-6.7674 98.3342 -306.913 0 255 0 255 
-13.1141 104.618 -304.2 0 0 255 255 
-13.2822 95.9455 -300.564 255 0 0 255 
-6.66748 98.3312 -306.915 0 255 0 255 
-13.1103 104.71 -304.161 0 0 255 255 
-13.281 95.9069 -300.472 255 0 0 255 
-6.56755 98.3282 -306.918 0 255 0 255 
-13.1066 104.802 -304.123 0 0 255 255 
-13.2798 95.8683 -300.38 255 0 0 255 
-6.46763 98.3251 -306.92 0 255 0 255 
-13.1028 104.894 -304.084 0 0 255 255 
-13.2786 95.8297 -300.288 255 0 0 255 
-6.36771 98.3221 -306.923 0 255 0 255 
-13.099 104.986 -304.046 0 0 255 255 
-13.2774 95.7911 -300.195 255 0 0 255 
-6.26779 98.3191 -306.926 0 255 0 255 
-13.0953 105.079 -304.007 0 0 255 255 
-13.2762 95.7524 -300.103 255 0 0 255 
-6.16787 98.3161 -306.928 0 255 0 255 
-13.0915 105.171 -303.969 0 0 255 255 
-13.275 95.7138 -300.011 255 0 0 255 
-6.06794 98.3131 -306.931 0 255 0 255 
-13.0878 105.263 -303.93 0 0 255 255 
-13.2738 95.6752 -299.919 255 0 0 255 
-5.96802 98.3101 -306.933 0 255 0 255 
-13.084 105.355 -303.892 0 0 255 255 
-13.2726 95.6366 -299.826 255 0 0 255 
-5.8681 98.3071 -306.936 0 255 0 255 
-13.0802 105.447 -303.853 0 0 255 255 
-13.2714 95.598 -299.734 255 0 0 255 
-5.76818 98.3041 -306.938 0 255 0 255 
-13.0765 105.539 -303.815 0 0 255 255 
-13.2702 95.5594 -299.642 255 0 0 255 
-5.66826 98.3011 -306.941 0 255 0 255 
-13.0727 105.632 -303.776 0 0 255 255 
-13.269 95.5208 -299.55 255 0 0 255 
-5.56833 98.2981 -306.943 0 255 0 255 
-13.069 105.724 -303.737 0 0 255 255 
-13.2678 95.4821 -299.458 255 0 0 255 
-5.46841 98.2951 -306.946 0 255 0 255 
-13.0652 105.816 -303.699 0 0 255 255 
-13.2666 95.4435 -299.365 255 0 0 255 
-5.36849 98.2921 -306.949 0 255 0 255 
-13.0614 105.908 -303.66 0 0 255 255 
-13.2654 95.4049 -299.273 255 0 0 255 
-5.26857 98.2891 -306.951 0 255 0 255 
-13.0577 106 -303.622 0 0 255 255 
-13.2642 95.3663 -299.181 255 0 0 255 
-5.16864 98.286 -306.954 0 255 0 255 
-13.0539 106.093 -303.583 0 0 255 255 
-13.263 95.3277 -299.089 255 0 0 255 
-5.06872 98.283 -306.956 0 255 0 255 
-13.0502 106.185 -303.545 0 0 255 255 
-13.2618 95.2891 -298.996 255 0 0 255 
-4.9688 98.28 -306.959 0 255 0 255 
-13.0464 106.277 -303.506 0 0 255 255 
-13.2606 95.2505 -298.904 255 0 0 255 
-4.86888 98.277 -306.961 0 255 0 255 
-13.0426 106.369 -303.468 0 0 255 255 
-13.2595 95.2118 -298.812 255 0 0 255 
-4.76896 98.274 -306.964 0 255 0 255 
-13.0389 106.461 -303.429 0 0 255 255 
-13.2583 95.1732 -298.72 255 0 0 255 
-4.66903 98.271 -306.966 0 255 0 255 
-13.0351 106.554 -303.391 0 0 255 255 
-13.2571 95.1346 -298.627 255 0 0 255 
-4.56911 98.268 -306.969 0 255 0 255 
-13.0314 106.646 -303.352 0 0 255 255 
-13.2559 95.096 -298.535 255 0 0 255 
-4.46919 98.265 -306.972 0 255 0 255 
-13.0276 106.738 -303.313 0 0 255 255 
-13.2547 95.0574 -298.443 255 0 0 255 
-4.36927 98.262 -306.974 0 255 0 255 
-13.0238 106.83 -303.275 0 0 255 255 
-13.2535 95.0188 -298.351 255 0 0 255 
-4.26935 98.259 -306.977 0 255 0 255 
-13.0201 106.922 -303.236 0 0 255 255 
-13.2523 94.9802 -298.258 255 0 0 255 
-4.16942 98.256 -306.979 0 255 0 255 
-13.0163 107.015 -303.198 0 0 255 255 
-13.2511 94.9415 -298.166 255 0 0 255 
-4.0695 98.253 -306.982 0 255 0 255 
-13.0126 107.107 -303.159 0 0 255 255 
-13.2499 94.9029 -298.074 255 0 0 255 
-3.96958 98.25 -306.984 0 255 0 255 
-13.0088 107.199 -303.121 0 0 255 255 
-13.2487 94.8643 -297.982 255 0 0 255 
-3.86966 98.247 -306.987 0 255 0 255 
-13.005 107.291 -303.082 0 0 255 255 
-13.2475 94.8257 -297.89 255 0 0 255 
-3.76974 98.2439 -306.989 0 255 0 255 
-13.0013 107.383 -303.044 0 0 255 255 
-13.2463 94.7871 -297.797 255 0 0 255 
-3.66981 98.2409 -306.992 0 255 0 255 
-12.9975 107.476 -303.005 0 0 255 255 
-13.2451 94.7485 -297.705 255 0 0 255 
-3.56989 98.2379 -306.995 0 255 0 255 
-12.9938 107.568 -302.966 0 0 255 255 
-13.2439 94.7099 -297.613 255 0 0 255 
-3.46997 98.2349 -306.997 0 255 0 255 
-12.99 107.66 -302.928 0 0 255 255 
