ply
format ascii 1.0
comment (C) Hongzhi Wu, Sep 2013.
element vertex 1701
property float x
property float y
property float z
end_header
-0.392484 1.009809 1.524202
-1.132932 0.555156 1.692193
-0.277131 0.360450 0.868259
-1.291997 1.224406 1.379030
-0.428201 0.979558 0.247221
-0.809058 1.737988 2.069744
-1.400213 0.836443 2.194808
-0.977833 0.810979 2.073597
-1.015701 1.626762 1.538979
-0.898039 -0.237352 -0.051594
-0.537462 0.970153 0.265767
0.143009 0.461161 -0.019415
-1.318135 1.937356 2.685909
-0.383738 1.398437 1.330829
-0.062650 0.063485 -0.238262
-0.209817 0.148127 -0.587748
-1.178111 0.613536 1.791905
-0.697594 0.489517 1.408738
-0.690198 0.520186 1.480388
-1.194470 1.257374 1.215213
-0.813249 0.398865 -0.135832
-1.593953 1.921279 2.175789
-0.266425 1.103528 0.979699
-0.354283 1.274895 1.680286
-0.355383 0.445921 1.097316
-0.107916 -0.011436 -0.315587
-1.275032 1.134667 1.254214
0.431555 1.135046 0.132182
-1.316193 0.913192 1.179337
-0.626465 1.608403 2.310509
-0.621669 0.811918 0.019524
-0.888672 1.782937 2.071079
-0.190186 0.947929 0.945561
-0.650762 1.351161 1.023560
-1.094360 1.569388 1.489096
-0.237158 0.748941 1.164105
-0.685372 1.489480 1.331291
-1.158917 1.800680 1.927180
0.083617 0.310525 -0.270199
-0.813609 0.578640 1.662008
-0.663426 1.517859 1.335643
-1.401122 0.951274 2.181407
-0.639729 1.633626 2.341200
-0.265145 0.278112 -0.572097
-0.495764 0.005312 0.330582
-0.227025 0.085494 0.293029
-0.651883 1.492170 2.516639
-0.534948 1.363305 1.230429
-0.714887 1.025817 2.110115
-1.177537 0.886013 2.265228
-0.859426 0.341023 0.874353
-0.184699 0.277448 -0.593007
0.001505 0.742213 -0.239731
-0.855120 1.763835 2.037964
-0.408380 1.666600 1.834766
-1.652985 1.334553 1.985401
-0.289830 1.150344 0.987154
-1.173526 1.003255 2.662808
-0.895141 0.540423 0.416915
-0.302863 1.448048 1.501723
-0.757160 1.694427 2.039778
0.154823 0.587021 -0.245233
-0.249515 1.008857 0.567688
-0.350199 1.530060 1.734054
-1.327002 1.091177 2.846186
-1.148980 0.925658 0.923670
-1.061240 0.711657 0.673536
-0.408922 0.343539 0.982633
-0.700186 0.983881 2.074613
-0.199305 0.138856 0.395075
-0.802083 0.533740 0.097710
0.423088 1.116262 0.159237
-0.231296 0.784667 1.158698
-0.562655 1.097700 1.963258
-0.562389 1.369308 2.080952
-1.008826 1.212039 0.929021
-1.207212 0.537026 1.189648
-0.299950 1.478636 1.488273
0.038391 0.107162 -0.300826
-0.265368 0.562359 -0.377646
-1.712576 1.229677 2.337356
-1.323551 0.914085 2.416078
-0.311249 0.575954 1.181980
-0.506579 0.592772 -0.273456
-1.494511 1.618655 1.998521
-1.083699 1.507070 1.413756
-0.486045 0.951331 1.700821
-0.719152 -0.103268 -0.280415
-1.195058 0.990075 1.061466
-1.444223 0.606224 1.848286
-0.537255 1.648176 1.646691
-0.853422 1.102138 2.481859
-1.051743 1.216406 2.942916
-0.238455 0.086343 0.335221
-0.697752 1.211314 2.221112
-0.773493 1.714512 2.104950
0.037906 0.822661 0.409272
-0.907902 1.095462 2.649466
-1.038173 -0.308145 -0.178809
-1.471434 1.991797 2.159108
-1.028416 0.994421 2.336020
-0.755916 1.667574 2.233914
-1.519092 2.098262 2.357101
-1.018634 -0.061060 -0.215799
-1.573561 0.618659 1.539704
-1.281377 1.085205 2.834754
0.240221 0.782629 0.312147
-1.003581 1.685707 1.603823
-0.236513 0.097134 -0.559416
-0.621918 1.177394 2.064185
-1.315450 1.771765 2.902518
-0.612809 0.280146 -0.336888
-0.593278 0.909154 0.166740
-1.117335 0.519296 1.102581
-0.723707 1.602870 1.407759
-1.132991 0.831855 0.874894
-0.704741 1.025770 0.434440
-1.156619 0.955470 2.314612
-0.823064 0.519707 1.493445
-0.718824 0.794738 1.889282
-0.972504 1.603733 2.952583
-0.718770 1.627723 1.437413
-0.324743 1.373770 1.375782
-0.800417 1.857174 2.650981
-0.376873 0.087979 0.452670
0.460573 0.845842 -0.125827
-0.829954 1.178846 2.657064
-1.233139 0.590336 1.146911
-0.814065 0.566648 1.612523
-0.206061 0.844692 1.097708
-0.852121 0.165231 -0.171415
-1.578149 1.178758 1.895237
-0.833312 1.765067 1.679001
-1.675181 1.179240 2.272136
-0.704499 1.195140 0.669820
-0.621757 1.267214 0.817579
0.085850 0.108361 -0.446989
-0.597086 -0.055919 0.202030
-0.257332 0.165336 -0.601446
-0.712687 1.724036 2.513089
0.082131 0.367937 -0.178495
-0.277126 0.089686 0.397755
0.594009 1.059639 -0.074332
0.075035 0.357487 0.136116
-0.699850 1.472999 2.624826
-0.323687 1.565664 1.681811
-0.587198 0.901112 0.133046
-0.102335 0.634304 0.753154
-1.035877 0.523974 1.382029
-0.612250 1.561161 2.129540
-1.559526 1.858820 2.067206
0.007249 -0.001378 -0.432522
-0.575100 0.193891 -0.371747
-0.384047 1.036520 0.477269
-0.600266 0.948810 0.244699
-1.494908 1.071697 1.649332
-0.875606 0.160605 -0.147103
-0.865378 0.501678 0.336557
-0.233165 0.513146 1.003555
-0.279541 0.118172 -0.647310
0.056075 0.421731 -0.248133
-0.994976 2.012577 2.219718
-0.755204 1.056404 0.497065
-1.012643 0.877622 0.618040
-0.909523 0.433836 0.522752
-1.635785 0.714414 1.772645
-0.939922 1.268692 2.881563
-1.143576 2.127254 2.391461
-1.491931 0.586957 1.435451
-0.905546 1.020276 2.469216
-0.495466 1.317478 1.094680
-0.938336 0.575237 0.489820
-0.934152 1.352654 2.956032
-1.105118 1.243663 1.074555
-1.476428 1.143018 2.147960
-1.154661 0.721776 2.019840
-0.782752 0.345260 -0.206681
-1.172778 -0.102712 -0.033735
-0.227046 0.944035 0.167193
-0.661519 1.387460 2.526586
-0.192624 0.302050 -0.561154
-1.866985 1.538715 2.495586
-1.042696 1.247909 2.962163
-0.840107 0.217801 0.249322
-0.225025 0.747556 -0.241749
-0.088211 0.896298 0.493869
-1.105203 1.302297 2.990345
-0.903239 1.274378 2.843912
-1.514801 0.997135 2.178124
-0.425778 0.115106 0.526561
-1.508000 1.694200 2.895997
-0.946415 1.910866 2.788597
-0.870344 1.023477 2.278517
-1.597488 0.626091 1.723057
-1.240726 0.624920 1.121559
-0.783835 0.737175 0.212295
-0.695380 1.180565 2.186523
-0.393177 1.259238 1.756439
-0.683475 0.837578 1.876178
-1.809843 1.501421 2.635230
-1.445806 0.986217 1.435467
0.557846 0.926621 -0.062209
-0.300757 0.096801 -0.630197
-1.499178 1.805067 2.756889
-0.466734 1.695792 1.878774
-0.318153 0.944108 1.361150
0.024048 0.029146 -0.443733
0.118891 0.295106 -0.463284
-1.079909 0.949920 2.542686
-0.315264 0.603008 -0.346849
-0.869364 1.311626 2.835144
0.019665 0.267720 0.003392
-0.181801 -0.017197 -0.485745
0.516913 1.001781 0.104503
0.051529 0.394206 0.381787
-0.334242 1.362119 1.622704
-0.629500 1.812892 1.904459
-0.822822 0.497267 0.043673
-1.266929 0.558583 1.636616
0.494151 0.931102 0.136028
-0.970457 2.002724 2.709759
0.291704 0.675850 0.134432
-0.858837 0.300876 0.655903
-0.587421 1.448781 2.142746
-1.058758 0.677350 0.675739
-1.351652 1.138054 1.399868
-0.014854 0.054895 -0.475744
0.063891 0.354088 0.066287
-1.532602 0.806657 2.036242
-0.569317 0.544210 1.433854
-1.436109 0.584694 1.373484
-1.440248 0.738247 1.376011
-0.821962 0.233088 0.405516
-1.313406 0.998371 2.370769
-0.476665 0.616275 1.412325
-0.790561 0.807744 0.287763
-1.813491 1.448584 2.633339
-0.446653 0.448139 1.180487
-0.155083 -0.007636 -0.413208
-1.140918 -0.059627 -0.065138
-1.702541 1.965893 2.409719
-1.483731 1.906954 2.050301
-0.974224 1.478147 1.288707
-0.413424 1.642369 1.881843
-0.973515 1.223290 0.902680
-1.514762 1.413064 1.914076
-0.808757 1.804144 2.780956
-0.966922 -0.110793 0.134059
-0.816446 1.266555 2.721163
-1.358432 1.046682 2.245595
-0.446750 0.146668 -0.445914
-0.534176 0.283993 0.915059
-0.712738 1.418383 2.349324
-0.770275 0.426605 -0.175798
-1.254005 0.617741 1.153640
-0.313961 0.864028 1.354292
0.123298 0.320189 -0.369225
-0.961699 0.673876 1.879392
-1.025894 0.891140 0.646248
-1.100907 -0.286041 -0.040540
-1.292213 1.002706 2.232076
-1.281983 1.593320 2.975879
-0.949524 1.015648 2.579232
-1.208124 0.520399 1.347219
-1.120721 0.753243 0.817122
-0.385176 1.364737 1.261581
-1.499972 1.442173 1.922823
-0.434261 0.558290 1.325075
-0.617110 1.756579 1.913248
-1.389208 1.341301 1.615921
-0.824759 1.043309 2.497665
-1.759986 1.717356 2.654236
-0.421871 1.452944 1.414537
-0.735602 0.163635 0.416310
-0.320956 0.110026 -0.605033
-1.056408 -0.159133 0.135038
-0.306253 0.826917 1.337317
-1.614248 1.779261 2.726298
0.488623 1.011649 0.172140
-0.850631 1.909790 2.142727
-0.762044 1.735516 2.706318
-0.755242 0.484828 1.369913
-1.690955 1.234640 2.188214
-0.742076 0.698985 1.736458
-1.451905 0.951524 1.448612
-0.811639 0.466899 -0.045605
-0.011393 0.333918 0.417195
-0.844831 0.189838 0.230032
-0.998881 1.365275 1.124673
-1.378035 0.972611 2.534598
-1.393602 0.526041 1.416492
-0.350798 0.436668 -0.450868
-1.114784 2.141941 2.472682
-0.847502 1.251740 0.835882
-1.048924 0.960103 2.309255
0.096272 0.399058 0.252497
-1.522693 0.805940 1.562963
-0.382372 1.582221 1.539168
-0.694232 0.857226 0.190008
-1.261422 1.578307 1.687421
-0.199893 0.939914 0.189288
-0.179390 -0.062019 -0.427519
-1.107302 1.537646 1.468837
-0.332978 0.831815 -0.154359
-0.406992 0.534251 1.265057
-1.427068 1.996981 2.547757
-1.470378 1.704822 1.952163
-0.782446 1.867065 2.302244
0.110778 0.879283 -0.164109
-1.038994 0.976593 2.457552
-0.785232 0.836179 0.307611
-1.676913 1.986163 2.356008
-1.760739 1.581708 2.195733
0.177183 0.483055 -0.015800
-0.662444 0.415027 1.228907
-0.334458 0.007183 0.215723
-1.327625 0.621749 1.837580
-0.272112 0.948830 1.232259
-0.649807 1.570403 2.456265
-1.373621 0.945479 2.456567
-1.461050 0.760691 1.406092
-0.831412 0.827295 0.382738
-0.180707 0.670041 1.025287
-0.678982 1.135496 2.121431
-0.539001 0.694354 1.604075
-0.398592 -0.004702 -0.329967
-1.301053 0.753568 1.130555
-0.361892 1.647726 1.613978
-0.210869 0.106806 0.330055
-1.334569 1.660191 2.975144
-0.315473 0.103741 -0.556801
-0.174277 0.008241 -0.180927
-0.803695 0.378369 1.105414
-0.843686 0.787834 0.379884
-0.051941 0.887191 0.253441
0.568646 0.969968 0.095791
-1.133800 0.523776 1.136436
-0.834276 0.393794 1.110472
0.312652 0.734250 -0.216149
-1.384955 1.065018 2.772817
-1.762893 1.273412 2.608999
-0.983401 0.506793 0.664297
-0.123317 0.920615 0.255681
-0.704551 0.193073 0.573579
-1.684903 1.426983 2.017158
-1.525707 0.760748 2.073975
-0.635212 1.331273 2.422735
-0.624370 0.562779 1.521003
-1.507846 1.041161 2.568997
-0.500506 0.811712 -0.099260
-0.846565 0.874018 2.119897
-1.546192 1.024311 1.955199
-0.284602 1.124706 1.103790
-0.974752 0.427376 0.831152
-0.652865 1.713660 1.648296
-0.798205 -0.102128 -0.304671
-1.134118 1.002118 0.918045
-1.252545 2.122073 2.482495
-0.762153 0.671133 1.729617
-0.146898 0.697879 0.929972
-0.943983 0.546145 0.519909
-0.693822 1.634403 2.292745
-1.008768 1.142639 0.845183
-1.399958 0.606560 1.808821
0.077403 0.742583 0.436573
-0.129266 0.150986 0.214693
-1.149362 0.526446 1.261726
-0.976138 1.000304 0.648580
-0.158387 0.919086 0.170916
-1.295184 0.592331 1.767540
-1.051196 0.540417 0.864664
-1.446979 0.597990 1.813295
-0.613521 1.318702 0.966205
-0.742911 0.512747 1.416630
-1.477742 1.347435 1.777548
-1.643140 0.800269 1.775943
-0.245986 0.097775 0.388395
-0.133165 0.252707 0.500535
-1.603337 1.612130 2.862392
-0.268851 1.097628 1.052060
-0.535031 0.891515 0.062533
-0.452912 0.643605 1.416925
-1.423303 0.871367 2.022264
-0.277019 0.102086 0.429969
-1.306866 1.687374 1.834845
-1.172481 -0.147923 0.025201
-1.088615 1.089445 2.779963
-1.017259 0.679720 0.594780
0.439618 0.810708 0.077229
-0.699699 0.891548 2.003010
-0.671392 1.171668 2.134498
-0.953683 0.492770 1.454548
-1.040952 0.714039 1.919964
-0.111877 0.074718 -0.110346
-1.714931 1.441243 2.759338
-0.873569 0.703700 1.895713
-0.821919 1.331700 2.783933
0.148370 0.880122 -0.182841
-0.295020 -0.082801 -0.518642
-0.077373 0.306713 0.485690
-0.840142 1.437888 2.884784
-0.446567 1.062760 1.801764
-0.000880 0.800137 0.497799
-0.861433 0.438140 1.185142
-0.425344 0.989934 0.294073
-1.132947 1.130595 1.009346
-0.334231 0.762590 -0.218286
-1.313952 0.567783 1.607879
-0.898925 1.745544 1.650121
-0.789533 1.772975 1.720055
-1.439946 0.912132 1.373300
-0.494475 0.517253 1.333494
-0.904152 1.876623 2.043571
-0.768204 1.716525 1.583699
-1.212387 0.940371 2.536073
-0.398270 0.651380 -0.288957
-0.918582 0.492324 1.400675
-0.727847 1.675634 2.034772
-1.646494 1.651995 2.001070
-1.747519 1.253984 2.561852
-0.936157 0.655141 1.852032
-1.251205 0.823344 1.053845
-1.845585 1.429515 2.552631
-0.719434 1.771819 2.420998
-1.585097 1.946259 2.525600
0.037246 0.226054 -0.166415
-1.302558 1.015839 2.266210
-0.846716 1.871997 2.067811
-0.337807 0.665831 1.297846
-0.290315 0.482473 1.063285
-0.946791 0.081338 -0.131921
-1.093855 0.826226 2.159391
-0.023628 0.702991 0.619311
-0.952909 -0.057793 -0.269755
-0.154602 0.110348 0.095834
-0.471779 1.266406 1.902323
-0.751001 1.260368 2.347552
-0.352746 0.325927 0.905878
-0.504886 1.218244 0.760332
-0.354403 0.526235 -0.388274
-1.429512 1.747188 1.919392
-1.571559 1.153323 1.826367
-1.132913 1.209589 1.083552
0.058552 0.470789 0.514817
-0.835501 1.926881 2.361320
-0.843711 1.910841 2.704291
-0.980557 2.074487 2.573357
-0.394247 0.753840 1.457983
-0.691056 1.831869 1.949003
-0.463128 1.233526 1.870232
-0.903152 1.494631 1.296023
-0.161730 0.907358 0.833920
-0.652154 1.348126 2.496749
-0.367804 -0.021230 -0.115032
-1.736313 1.252534 2.421459
-0.543959 1.295561 0.969430
-0.222594 0.253735 0.646454
0.177783 0.489079 0.210822
0.416186 1.106766 0.096544
-1.091705 1.463360 1.347795
-1.497211 1.203839 2.038669
-0.424058 0.353424 -0.451256
-1.673979 1.327053 2.014519
-0.729770 1.292986 0.866864
-0.805976 -0.180820 -0.250105
-0.505843 1.034688 1.872095
-0.909588 1.124025 0.705660
0.077990 0.182916 -0.478707
-1.766177 1.378512 2.280311
-1.112213 0.853913 0.797750
-0.977560 1.958319 2.764811
-0.943744 -0.244701 -0.246433
-1.612821 0.866142 1.696398
-0.947652 0.834540 2.108281
-0.826505 1.846701 2.094538
-1.844269 1.698696 2.401031
-0.895854 0.626434 1.797623
0.318063 1.053374 -0.047127
-1.863563 1.627481 2.458049
-0.636454 1.489428 2.355196
-1.272107 2.100495 2.499627
-1.132246 0.618990 0.913594
-1.187084 1.782658 1.911187
-0.712591 1.584831 2.250876
-1.715982 1.936840 2.339493
-0.417389 0.045542 -0.464071
-1.263285 2.020335 2.608674
-1.157649 1.071754 2.783482
-0.941008 1.955268 2.112661
-1.397827 0.930925 2.370493
-1.115996 1.969314 2.757020
-1.668216 1.155696 2.411949
-1.145170 1.014290 2.676901
-0.228168 0.999465 0.597889
-1.292597 0.919095 2.455390
0.081015 0.335161 -0.143259
-0.951458 2.046767 2.499625
-0.023091 -0.008813 -0.383731
-0.930454 1.826462 2.039375
-0.816477 1.475558 1.224615
-0.064135 0.862336 0.558856
-0.733006 1.687256 2.649127
-0.539311 -0.078836 -0.130574
-1.555071 1.592342 1.923818
-0.897627 1.727394 1.618298
-0.774702 0.580458 1.604711
-0.360135 -0.073195 -0.456056
-0.149611 0.803624 0.947322
-1.087163 1.693851 1.667695
-1.477966 0.638101 1.458021
-1.668179 1.259496 2.785862
-0.856535 -0.127334 0.080769
-0.584792 0.785885 -0.043425
-0.460354 1.268032 1.041068
-1.108914 0.538027 1.442109
-0.644450 1.746602 1.734293
-0.843473 0.862284 0.402114
-0.481527 0.579796 -0.294147
-1.284249 0.958339 2.559724
0.176676 0.550826 0.405226
-0.455955 1.301161 1.096990
-0.975507 1.078181 2.421801
-0.741692 0.110894 0.346953
-0.111030 0.228701 0.406426
-0.194424 0.906882 1.025664
-0.987061 -0.178165 0.114756
-1.170339 0.973356 1.000788
-0.269490 0.944154 0.129490
-1.026686 1.938877 1.988170
-1.314195 1.606333 1.773991
-0.570296 1.625084 1.520517
-1.517177 1.056147 2.606518
-0.716002 1.814401 1.912797
0.286057 1.043140 -0.011236
-1.548918 1.258443 1.967850
-0.698912 1.560065 2.050380
-0.456979 1.710827 1.759698
-1.124798 1.323142 1.205981
-1.048581 1.394136 1.213167
-1.442462 0.820423 1.780706
-1.638913 0.758544 1.801373
-0.434219 0.266366 0.832788
-0.368198 1.366445 1.746878
-0.684551 0.785977 0.070117
0.631395 1.012718 -0.032095
-0.535916 0.182833 -0.378514
-0.746279 -0.193544 -0.182768
-0.010449 0.844862 0.444888
0.092528 0.427310 0.334404
-0.847357 -0.143994 -0.291495
-1.497612 1.111680 2.000489
-1.372515 0.679155 1.285105
-0.175876 0.317547 0.669890
-0.588529 1.595032 1.451801
-1.248187 0.963743 1.103374
-0.692240 1.452588 2.285393
-1.565568 1.037141 2.302538
-0.574721 1.713831 1.718238
-0.331908 0.580348 1.217027
0.452262 0.795219 -0.072894
-0.021872 0.278043 0.328710
0.339086 0.647628 -0.020820
-0.535548 1.472271 1.308941
-1.617402 1.094817 2.282824
-0.740430 1.301139 2.372312
-0.544098 1.365606 1.193025
-1.292250 1.053965 1.216888
-0.708998 1.160950 0.610907
-1.816811 1.386198 2.623111
-0.251106 0.358793 0.823998
-0.558143 1.189726 1.986159
-0.799590 0.633655 0.188020
0.563535 0.998487 0.113353
0.120742 0.698283 0.406290
-1.710745 1.207562 2.563844
-1.313380 0.608883 1.256422
-0.773766 0.874349 0.327570
-1.531718 1.625867 1.952403
0.178239 0.565360 0.306702
-1.578418 1.043601 1.954371
-0.430217 0.600506 -0.308474
-1.373727 0.736877 2.105567
-0.987494 1.086002 0.758579
-0.656407 0.477586 1.389286
-1.503624 0.936354 1.869661
-0.875895 0.947023 0.480864
-0.887952 0.441577 0.445210
-0.470298 1.208942 0.771553
-0.654903 1.188001 0.643684
-1.397916 1.781926 2.843371
-0.450718 0.234889 0.766349
-0.243625 0.951721 1.145015
-1.746315 1.849378 2.300408
-1.633512 1.430850 2.038477
-0.509802 0.086696 -0.329324
-1.752899 1.271941 2.467022
-0.340309 1.418172 1.643458
-1.078655 1.823978 2.000957
-1.504260 0.877348 1.544641
-0.413967 1.224779 0.983413
-0.060315 0.120119 -0.526867
-0.858588 0.269631 -0.112619
-0.827332 0.785757 0.344706
-1.699639 1.385828 2.069870
-0.674939 0.985904 2.047845
-1.075696 -0.252457 -0.167298
-0.819252 0.479986 0.119138
-0.864410 1.365242 1.032731
-0.889074 1.262004 2.813449
-0.842410 1.938326 2.479352
-1.563070 0.695149 1.599925
-1.028440 1.457686 1.293674
-1.698127 1.195009 2.610924
-0.316540 0.681814 1.276222
-0.346632 1.066083 1.366335
-0.535929 1.759767 1.854467
-1.055249 -0.077829 0.132751
-1.828450 1.523127 2.374387
-0.473005 0.447961 1.204278
-0.378944 1.090975 1.455952
-1.404835 0.826423 1.293014
-0.495007 0.543199 -0.316278
-0.387076 0.043176 -0.510646
0.104622 0.233285 -0.435925
-0.502012 1.182388 0.661441
-0.939768 0.443208 1.024646
-0.771463 1.736647 2.739237
-0.398414 0.789854 -0.179272
-0.538055 1.461128 2.076413
-0.829926 -0.221476 -0.021655
-0.786635 0.499412 1.375113
-1.314741 0.634448 1.234658
-0.325002 0.360866 0.938993
-1.131853 0.767415 0.848826
-0.515579 0.991535 1.791554
-1.264817 1.633883 1.756960
-0.303509 1.189764 1.102801
0.040376 0.524012 0.561197
-0.850689 0.343438 0.912605
-0.172305 -0.067857 -0.334802
-0.274664 0.585585 1.138078
-1.439153 1.576221 1.901311
-1.558157 1.053303 2.472087
-0.963792 1.985800 2.182819
-1.239085 1.027957 2.356380
0.231206 0.509798 0.090886
-0.527529 0.885719 1.745624
-1.628462 1.395745 2.073025
-0.869904 1.815988 1.875640
-1.674889 1.972040 2.321864
-0.426368 0.357481 1.030659
-0.928225 1.521158 1.371335
-1.559201 1.268523 1.935862
-1.496956 1.784067 1.916639
-1.486825 0.802756 1.470510
-0.439026 0.695581 1.461956
-0.652630 1.575961 1.379538
-1.324709 0.598701 1.743433
0.312326 1.063963 -0.015473
-0.502497 -0.085505 0.100231
-0.802533 0.907034 0.370934
-0.651094 1.685496 2.281406
-1.779397 1.560323 2.669129
-1.595911 1.107744 1.849384
0.021185 0.275454 0.135408
-1.480479 0.802205 2.132106
-1.652359 1.152816 2.210082
-0.462022 0.985283 0.285492
-0.426336 0.010607 -0.211483
-1.195595 0.816481 2.183442
-0.876260 1.629319 2.912247
-1.828811 1.587833 2.357541
-1.064321 -0.285161 -0.168620
-0.035135 0.157446 -0.047374
-0.544064 0.789512 -0.080849
-1.067404 1.749042 1.756411
-1.586715 1.966031 2.221245
-0.846861 0.546014 1.575782
0.223879 0.546559 -0.054348
-0.859486 0.383268 -0.031120
-0.660738 1.205033 2.144321
-1.695514 1.229594 2.223459
-0.766986 1.095240 2.235880
-1.204979 1.866899 1.992828
-1.509535 2.007142 2.488610
0.084105 0.907481 0.249034
0.115252 0.259386 -0.547207
-1.762736 1.436380 2.220817
-0.884960 1.978459 2.660563
0.404287 1.128694 0.019501
-0.391371 1.021079 0.445879
0.079493 0.583429 0.517458
-1.114751 -0.300484 -0.085241
0.325687 0.622863 0.021433
-1.479999 1.713852 2.886068
-0.453579 1.703715 1.719390
-1.272553 0.550251 1.464551
-1.197537 0.935615 2.423416
-0.692067 1.654296 2.531791
-0.072356 0.789681 0.678551
0.516484 1.029186 0.061465
-1.530302 1.685593 1.881806
-0.754664 0.192944 -0.318233
-0.818825 0.750171 0.301209
-1.693618 1.520515 2.777122
-1.511228 1.652281 2.925309
-1.347127 1.655299 1.838179
-0.909803 0.111845 -0.176686
-1.355244 0.957097 2.509702
-0.129567 0.352032 -0.505791
-1.633217 1.141913 2.660805
-1.271937 1.033236 2.345656
-0.880806 0.318450 -0.015044
-1.639872 0.870411 1.768920
-1.813516 1.691002 2.565538
-1.421003 1.207558 1.576747
-0.790761 0.768399 1.939339
-0.886640 1.891961 2.766982
-0.808802 1.884795 2.582822
0.075131 0.682574 -0.299865
-1.186463 0.887627 2.422816
-0.351332 1.251517 1.138623
-1.750517 1.645405 2.187651
-1.487352 1.144009 1.678066
-0.648721 -0.140182 -0.175385
-0.772814 1.333216 0.950872
-0.896520 0.971353 0.522505
-1.075705 2.093157 2.366967
-1.390713 1.441643 1.717517
-1.347823 1.961794 2.038770
-1.488271 1.472455 1.912622
0.394638 0.980110 0.209180
-1.438223 1.152053 2.890479
-1.200452 1.571286 2.982662
-1.023679 0.489874 1.103875
-0.602396 0.243569 0.800029
-0.029881 0.277837 -0.604986
-1.671399 1.783638 2.688769
0.119819 0.511021 0.447390
-0.322880 0.116552 0.496258
-1.614958 1.033557 1.845231
-0.587700 0.385361 -0.352687
-0.350956 0.045855 0.351973
-0.772700 1.809236 2.631387
-1.803084 1.766257 2.335829
-0.867788 0.473836 0.358271
-1.721568 1.859137 2.273107
-1.367493 0.553416 1.446587
-0.279604 1.024627 0.561186
-0.518194 1.493386 2.056483
-0.318416 0.448428 -0.449234
-1.151667 1.986146 2.715279
-0.367472 0.387176 1.027552
-0.617811 1.338891 1.020324
-1.603583 1.379091 2.090587
-0.199823 0.663782 1.062877
-0.375578 0.362286 0.991424
-1.103274 0.708545 0.804008
0.085670 0.916706 0.212659
-1.785440 1.740265 2.290791
-0.683100 1.401238 2.574549
-0.384519 0.161851 0.607253
-0.488916 0.093746 -0.359864
-1.142295 -0.196318 -0.123121
-1.207338 0.917670 1.055803
-1.218760 1.121348 2.890608
-1.623032 0.679574 1.657185
-0.394587 0.918238 0.027398
-0.831716 1.072846 2.543714
0.503122 0.857705 -0.053949
-0.317868 1.321514 1.461578
-1.299530 0.996710 1.186755
-0.799076 1.460964 1.194457
-0.714423 1.616065 2.094894
-0.845975 0.572484 1.675047
-0.464286 1.299675 1.907722
0.025581 0.495332 0.574411
-0.970091 1.696673 1.592632
-0.380127 1.192947 0.930328
-0.910351 0.402932 0.959104
-0.726947 0.895013 2.040909
-0.161049 0.800998 0.984068
-0.093767 0.906167 0.262021
-1.468122 0.834380 2.132045
-0.157790 0.462966 -0.408265
-1.516852 1.157713 1.781294
-0.180333 0.864327 1.014180
0.022964 0.823408 -0.183013
-1.416796 1.256885 1.610913
-1.551652 0.649053 1.838024
0.077024 0.145643 -0.475229
-1.155393 0.886002 0.937882
-1.531014 1.803653 2.740987
-1.628056 1.730315 2.782189
-1.140651 0.906487 0.896385
-1.236782 0.925352 2.498548
-0.807515 0.592482 0.187945
-1.365379 0.890087 1.250719
-1.753200 1.266482 2.514769
-0.547103 1.254448 0.831832
-0.832246 -0.170921 -0.277179
-0.881611 0.174966 -0.116983
0.376357 1.108120 0.016614
-0.976200 1.087185 2.702658
-1.096447 1.936407 1.955650
-0.062010 0.872820 0.134210
-1.562935 1.520725 2.035826
-0.622411 1.413490 2.182414
0.289398 0.701595 -0.222123
-0.442128 0.429993 -0.415025
-1.595578 1.303222 2.851248
-1.758059 1.778668 2.617934
-1.161804 0.648809 0.946097
-0.290539 1.089066 1.160115
-1.187762 2.124968 2.352400
0.281854 0.731767 -0.240507
-0.845049 0.398000 -0.060009
-0.358105 1.233749 1.681235
-1.119547 -0.268189 -0.226812
-1.138836 1.538998 1.483594
-0.786794 0.572476 1.568564
-1.681644 1.923071 2.277664
-1.365063 2.042960 2.181321
-1.074398 1.408094 2.994304
-1.142634 0.691286 0.906196
-0.742164 0.126539 -0.334948
-0.917631 1.375985 1.080654
-1.295836 0.791248 2.167445
-1.004977 1.621750 1.502456
-1.680018 1.172304 2.384961
-0.236190 0.002913 -0.134995
-0.800169 0.680966 1.820165
-1.559168 0.793621 1.658490
-0.866000 0.259673 0.139016
-1.248815 1.750281 1.885299
-0.800391 0.747091 0.254556
-0.696868 0.752004 1.758540
0.118460 0.583212 0.459686
-0.896502 0.904310 0.472604
-1.068992 -0.324703 -0.175450
-1.037009 0.914338 2.458878
-0.680194 1.280647 2.225831
-0.097641 0.890138 -0.044078
-1.513322 1.124437 1.688776
-1.156089 0.522984 1.390753
-0.397773 0.913830 1.552739
0.489330 0.986672 0.116403
0.496478 0.857516 0.032246
-1.055290 1.986255 2.082846
-1.390334 0.604947 1.723673
-1.334082 1.073410 1.328395
-0.393031 0.794309 1.484684
-0.940053 0.680593 0.473471
-0.470045 0.338399 1.026680
-1.038750 0.790988 0.635091
-0.621853 0.542024 1.492397
-1.537708 1.074203 2.141653
-1.519813 0.900888 1.874448
-0.137259 0.292865 0.574345
-1.640713 2.019747 2.399146
-1.282487 1.183814 1.333380
-0.652078 1.769173 1.813120
-0.892497 0.362267 0.527968
-1.558057 1.126783 2.787665
-0.899703 0.474445 0.450587
-1.575491 1.914089 2.148172
-0.217229 0.932466 1.076514
-1.253794 0.709387 1.062463
0.479329 0.827775 -0.023738
-1.461132 0.848018 2.017507
-0.965684 0.490082 0.638872
0.237138 0.628386 -0.193976
0.311625 0.745874 0.204805
-0.789046 1.074505 2.253254
-0.459695 1.761309 1.825076
-0.340945 1.146026 0.824436
0.439425 0.949642 -0.158422
-1.519123 2.052742 2.424030
-0.350797 0.937430 1.448060
-1.100198 1.147154 2.884259
-1.402198 0.580459 1.345699
-0.469417 0.151655 -0.408946
-0.823281 0.771631 1.965989
-1.243478 0.532967 1.536279
-1.051723 0.497697 0.932275
-0.727517 0.531691 -0.137654
-0.950048 1.454631 1.231267
-1.131272 0.531302 1.342121
0.117273 0.469205 -0.096114
-0.582051 0.556583 1.469092
-1.681966 1.721313 2.104221
-0.986583 0.478845 1.024718
-0.622866 1.536123 1.346383
-1.165860 2.015440 2.669316
-0.679416 1.333766 2.422067
0.239751 0.948304 0.253276
-0.722699 1.572276 2.361529
-0.755862 0.873740 0.291011
-1.391013 2.092935 2.443196
-0.232885 -0.013112 -0.227330
-1.160653 1.339390 1.257481
-0.881249 1.121208 2.653310
-0.656471 1.648453 2.395460
-1.403697 0.988980 1.957617
-1.105392 0.722874 1.951403
-0.808611 1.204483 2.407458
-0.570251 1.438896 1.297747
-1.315450 1.962792 2.654362
-1.397533 1.894718 2.697059
-0.755417 1.730803 1.614605
-0.250158 0.787670 -0.217578
-1.689008 1.617006 2.055796
-0.454003 1.249571 0.983379
-1.116267 1.264788 2.986407
-0.899982 1.067458 2.341799
-1.798428 1.380551 2.655740
-0.588306 0.332789 1.081016
-1.385446 0.762786 2.141190
-0.189227 -0.012632 -0.213803
-1.744711 1.819324 2.274381
0.054395 0.432193 -0.171452
-1.844999 1.672372 2.498941
-1.067789 0.590305 0.823551
-1.403308 0.804504 2.183283
-0.388004 1.213081 1.003275
0.347091 1.000843 -0.134376
-1.468077 0.793644 1.410896
-1.185837 1.235664 1.190683
0.250430 0.728513 -0.258685
-1.174400 -0.176642 -0.030861
-1.047129 0.538553 1.416116
-0.975238 1.668807 1.569480
0.065346 0.171805 -0.388807
-0.829267 0.236624 0.369805
-0.873751 1.975256 2.579034
-1.673943 1.258858 2.073041
-0.970934 1.077777 0.726139
-1.162525 1.572982 1.580797
-1.074119 1.771333 1.844791
-1.334840 1.815015 1.956957
-1.528212 0.994987 2.236583
-0.343314 1.220821 1.075164
-1.023871 1.204099 2.900731
-0.763570 0.687835 1.763756
-0.181074 0.944606 0.902307
-1.419488 1.188942 1.545344
-1.460732 0.829965 1.412676
-0.798635 1.307282 0.906630
0.228438 0.691818 -0.253658
-0.700925 0.137066 0.419330
-1.279705 1.369338 1.461841
-0.627384 -0.099778 0.152702
-0.742473 1.692769 1.543933
-0.308177 0.930526 0.057008
-1.529246 0.583380 1.719510
-0.427883 1.443251 1.378972
-0.321114 1.569425 1.540078
-1.360832 1.008856 2.645479
-0.846766 1.934730 2.330199
0.274297 0.604531 0.145966
-0.637387 1.365465 2.470636
-1.631380 0.728284 1.818234
-1.002614 2.056650 2.372452
-0.313918 0.900947 1.354173
-0.188623 0.970937 0.561519
-0.326978 0.821057 1.374854
-0.366311 1.529333 1.487610
-1.269458 1.353553 2.981911
-0.728774 1.472614 2.690730
-1.043885 -0.156697 -0.233138
-1.741314 1.767990 2.230655
-0.306486 1.156786 1.186788
-0.617571 1.231525 0.737751
-0.268851 0.268321 0.722675
-0.059661 0.702768 -0.291065
-0.697369 1.762320 2.253388
-1.041254 0.952073 2.532804
-0.356029 0.554090 1.222522
-1.519067 0.717099 1.580245
-0.468373 1.178270 0.677722
-1.547232 0.682508 1.952662
-0.220027 0.899080 1.113237
-0.779066 1.727299 2.773291
-1.442694 1.150195 1.607892
-1.424018 0.948454 2.386584
0.246785 0.532548 0.048568
-1.400341 1.307370 1.611894
-1.265500 2.126679 2.328940
-1.091649 1.231694 1.044195
-1.045838 0.858903 0.667668
-0.059754 0.823443 -0.144504
-0.326186 0.546641 -0.385604
-0.595740 1.624664 2.066040
-1.286012 1.034522 2.729529
-0.660447 0.794178 1.781475
-1.240271 1.910882 2.763684
-0.351042 -0.001941 0.169497
-1.319877 1.825916 1.923152
-0.979480 -0.005270 -0.199843
-1.203066 2.154187 2.468345
-0.495567 1.510580 1.388226
-0.079446 0.774309 0.709423
-1.194420 0.539992 1.152203
-1.153871 0.790492 0.946692
-1.185961 1.232466 2.981415
-1.409687 0.715678 1.326002
-0.421272 -0.030959 0.053263
-1.794660 1.613826 2.634719
-0.679793 1.245066 2.495168
-1.292133 0.562908 1.492530
-0.382044 1.598692 1.812460
-1.691898 1.807905 2.188061
-0.741109 1.490325 2.721024
-1.112512 2.140282 2.507472
-0.634067 0.733191 -0.043797
-0.686456 1.388712 2.247289
-1.751977 1.258033 2.652573
-0.506224 0.960657 1.732115
-0.694262 0.115786 0.382805
-1.366715 0.617218 1.328774
-0.300147 0.039029 -0.568092
0.172457 0.654449 -0.278539
-0.359697 0.382268 -0.470105
-1.215495 1.748006 2.969493
0.466345 1.074638 0.172063
-1.217180 0.885487 1.053926
0.275692 0.560817 0.060913
-0.876748 0.503796 0.379131
-0.243318 0.962497 0.326722
-0.785394 1.575511 2.833135
-0.719413 -0.139172 -0.234553
-0.064095 0.625217 -0.317018
-0.494358 1.376709 1.253183
-0.807675 1.067787 2.512890
-0.993865 1.169407 0.859944
-0.771842 1.570949 1.402609
-1.796137 1.557432 2.278637
-1.439348 1.660134 1.968033
-1.534483 1.173272 1.805209
-1.293964 0.872881 2.261726
-1.204488 1.460035 1.450454
-1.523497 2.052773 2.283907
-1.277861 1.745810 2.957178
-1.179060 0.670391 0.964994
-0.336673 0.037185 -0.591654
-0.798244 1.874120 2.547533
0.075195 0.445558 -0.136449
-0.815239 1.414337 1.119089
-0.181435 0.513885 -0.403386
-1.394863 1.500451 1.770146
-0.904632 1.122669 2.680060
-1.407013 0.588551 1.608670
-0.461607 1.223735 0.836395
-1.485752 1.741214 2.847318
-1.391333 2.108354 2.306324
-1.607343 1.899245 2.574279
-1.672090 1.871499 2.215697
-0.199433 0.977545 0.596366
-1.607218 1.738444 2.008251
-0.348880 0.080490 0.425068
-1.473463 0.977321 1.871741
-1.213805 1.861417 2.842689
-1.017409 -0.298968 -0.147946
-0.908353 -0.089621 0.113867
-0.851149 1.834666 2.128174
-0.927689 0.782332 2.006037
-1.210971 1.019625 2.700000
-0.505826 0.193964 -0.394811
-0.065046 0.343863 0.520646
-0.847954 1.780221 1.993112
-1.231599 1.172581 2.956175
-1.083084 -0.273456 -0.012863
-1.019188 1.127087 2.795833
-0.851551 0.417047 0.318150
-1.142479 2.044287 2.179311
-0.847825 1.855334 2.773415
-0.412694 0.186589 0.663565
-0.682878 0.241974 -0.329604
-1.693765 1.832674 2.210997
-0.657737 1.306333 2.494070
-1.092236 1.736523 1.736453
-0.136840 0.574926 0.798602
0.047457 0.808931 -0.205214
-0.780160 0.682562 1.792398
-1.184838 -0.160398 -0.081756
-1.145578 0.612602 1.803680
-0.320776 0.246697 -0.571209
0.029266 0.203571 -0.524778
-1.343902 1.466149 1.659821
-0.932275 1.248331 0.895014
-0.140147 0.920500 0.210303
-0.823829 0.595281 0.222848
-0.019588 0.741166 0.577691
-0.136117 0.220634 0.443722
-1.365125 0.965252 2.260182
-1.031540 1.498612 1.362656
-1.275449 1.461107 1.562925
-0.695478 1.364212 1.029315
-0.890170 1.148653 2.695822
-0.846915 0.982203 0.490778
-1.151898 2.148981 2.495171
-1.180635 1.007293 2.342347
-0.757113 0.268878 0.796711
-0.420567 1.201885 0.832013
-0.303813 1.554277 1.635188
-0.802507 0.228337 0.448695
-1.557909 0.714135 1.991648
-0.539065 0.255010 0.832510
-0.735414 0.912458 2.072286
-1.376504 1.722788 1.963277
-0.890022 0.721039 1.925057
-1.089682 1.209201 1.018613
-1.477845 1.053576 2.665237
-1.327181 1.373130 1.542543
-0.931065 2.034439 2.610186
-0.826500 0.508237 1.377957
-1.040061 1.336537 2.987264
-0.031480 0.639377 -0.317510
-0.214553 0.234982 -0.625122
-0.824963 1.431478 1.149167
-0.120545 0.870321 0.055965
-0.448327 0.314857 0.950556
-1.235385 1.955224 1.988566
-1.435122 1.729647 2.890554
-0.068111 0.877767 0.170957
-0.350315 0.362397 0.968349
-0.020873 0.293384 0.359520
0.002477 0.303363 0.330175
-1.033880 2.097084 2.459694
-1.328503 1.980334 2.060504
-0.250170 0.484106 1.000231
-0.452507 1.283869 1.878336
-0.843791 0.083644 -0.312447
-1.091692 1.198587 2.955135
-0.741923 1.683529 2.109020
-0.490415 1.421801 1.997623
-1.519367 0.543436 1.608898
-1.416914 0.882771 1.953461
-0.785836 1.760703 2.768532
-0.036838 0.324738 0.443355
0.008332 0.403212 -0.418961
-0.305572 1.095838 0.714902
-0.050340 0.222088 0.265208
-0.921178 0.750460 0.461939
-0.656599 0.976212 0.326941
0.034544 0.074075 -0.281987
-1.633818 1.950327 2.250321
-0.945454 1.766466 2.882803
-0.055759 0.805202 0.598793
-0.465939 -0.033162 0.253620
-1.230256 1.258539 2.981236
-1.245574 1.485212 1.550065
-1.576520 1.187803 1.929437
-1.048653 0.526722 1.347531
-1.469429 2.042831 2.233321
-1.169020 1.036627 2.724450
-0.750051 1.444727 2.725086
-0.928592 1.477287 1.261209
-0.227418 0.872872 -0.093457
-0.318225 1.159079 0.968296
-0.664146 0.346959 1.102631
-1.505051 0.722759 1.541034
-1.208838 0.674403 0.994235
-0.149187 0.607208 -0.312623
-1.513224 0.813452 1.967997
-1.123783 -0.039227 -0.044542
-0.294589 0.367657 -0.496534
-0.628397 0.864488 1.816396
-0.510966 0.525510 1.362979
-0.468434 0.080599 -0.389637
-1.285924 0.687827 1.139977
0.112146 0.680155 -0.302054
-1.008531 0.582979 1.720033
-1.421609 0.705585 1.371793
-1.408033 0.655765 1.990605
-1.326360 1.007070 2.658524
-0.369132 0.482912 -0.412345
-1.573320 1.993457 2.242956
-0.588499 0.993889 1.949573
-0.224512 0.923695 0.098503
-0.143020 0.199925 0.410300
-0.229462 0.296929 -0.561417
-0.835168 -0.029502 -0.318538
-1.803528 1.384283 2.417727
-1.474246 1.686491 2.924818
-1.195778 1.813884 2.914481
-1.098918 0.549303 1.573973
-0.304182 0.670314 -0.286202
-1.683838 1.777086 2.151115
-0.444239 0.015761 -0.391889
-0.576171 1.572009 1.404764
-1.011768 0.547840 0.675375
-0.518338 0.350321 -0.405303
-0.433760 1.532310 1.882124
-0.964095 1.934523 2.021680
-1.504407 1.246124 1.804375
-1.532808 1.243462 2.878830
-0.148233 0.227197 0.484254
-0.449063 1.629939 1.622174
0.224864 0.937902 -0.151449
-0.542341 1.119140 1.946778
-0.818051 0.892989 2.127335
-0.737361 1.650944 2.208381
-0.937433 0.394349 0.830232
-0.000904 0.880910 0.289480
0.348781 0.748088 0.165192
-0.176366 0.428845 -0.439676
-0.258216 -0.060264 -0.453945
-0.650789 1.375200 1.099835
-1.759116 1.291805 2.421501
-1.331943 2.079436 2.493645
-1.389084 0.943285 1.974954
-1.647661 1.473826 1.944378
-1.004827 1.386214 2.984980
-0.607995 1.746205 1.756405
-0.578088 0.368125 1.136866
-0.699687 0.328546 1.055833
-0.141834 0.695951 0.890287
0.415467 0.955643 0.193116
-0.633262 0.142186 0.521121
-1.010897 0.947464 2.510643
-0.651218 1.641486 1.493917
-0.749123 0.589622 -0.039367
0.051754 0.280110 -0.445715
-1.136408 1.560235 1.523455
-0.671447 1.766807 1.888730
-0.894798 0.365361 0.866333
-1.076495 0.716438 1.927376
-0.851150 1.475742 1.229473
-0.287204 0.049270 0.297513
-0.895521 1.161806 2.475094
-1.670867 1.903863 2.245519
-0.966452 0.089843 -0.012457
-0.697564 0.630164 1.650951
-1.476606 1.104429 2.812840
-0.589215 0.049842 0.361267
-0.977832 2.032229 2.328639
-0.094741 0.215296 -0.599235
-1.710905 1.818710 2.621198
-0.283315 0.040450 -0.500012
-1.016934 -0.253458 -0.062668
-1.608877 1.830127 2.663212
-0.860607 0.388640 0.009808
-1.406232 0.546743 1.493855
-0.888710 1.145356 2.438568
-1.570272 0.953965 1.930512
0.124686 0.614357 -0.293696
-0.342237 1.511258 1.467031
-1.228731 1.174276 1.180983
-0.612788 1.539531 2.349900
-0.640355 1.698822 1.620278
-0.781289 -0.076634 0.150304
-0.716824 1.647721 2.627665
-0.654220 -0.112032 0.134759
-0.440453 0.412127 1.124987
-0.256003 0.581637 1.108442
-0.809603 1.850847 2.724960
0.120106 0.809060 0.337936
-0.264094 0.706568 1.201172
-1.601677 1.187148 2.067927
-0.099611 0.295242 -0.573148
0.357070 1.044078 -0.089263
-0.422478 0.224792 0.734612
-1.543846 0.641153 1.765155
-1.657907 1.244098 2.030294
-0.163878 0.888284 0.056287
-0.941406 0.093186 -0.038016
-0.171696 0.024493 -0.521641
-1.681277 1.362702 2.790370
-0.157576 0.123252 0.180830
-0.133371 0.547559 -0.354523
-0.425380 1.699299 1.797012
-0.532186 1.436047 1.291775
0.423404 1.015835 0.205388
0.603132 0.973139 -0.047204
-0.944912 0.598554 1.763225
-1.105889 1.034770 2.468444
-0.358909 0.306181 0.873286
-0.719414 1.417894 2.385176
-0.218074 0.979815 0.481259
-0.978080 0.463822 0.993405
0.019766 0.275021 0.176589
-1.597977 1.366736 2.854810
-1.093677 -0.176985 0.087472
-1.134264 0.901694 2.457863
-1.585545 1.529569 1.941304
-0.315616 1.254593 1.387190
-1.497302 0.835181 1.813180
0.485748 1.147162 -0.016119
-0.714106 0.794806 1.850292
-0.147248 0.505333 -0.402869
-0.029776 0.599914 -0.320200
-1.054505 1.257916 1.028646
-0.532491 -0.095032 0.113942
-0.504477 0.859266 -0.022530
-0.995076 0.463995 0.792654
-0.660623 0.735635 1.720282
-1.008805 1.772352 1.786547
-0.859166 0.316317 0.146759
-0.850421 0.553578 0.272190
-0.505727 0.211249 0.727285
-0.694178 1.589170 2.589436
-0.204045 0.159295 0.459335
-0.981957 0.878315 2.206525
-0.345823 1.018938 0.458861
-0.469554 -0.015995 0.290929
-0.310363 -0.040929 -0.319176
-0.439492 1.482659 1.450771
-1.132175 0.704493 0.863669
-1.152951 2.118227 2.357726
-0.711398 1.582356 2.185103
-1.084213 1.019651 2.379502
-1.022311 1.588343 1.481810
-0.505504 0.433454 1.209129
-0.369659 0.012581 0.060782
-0.897045 1.334891 2.894773
-0.072946 0.889397 0.456718
-1.763624 1.668627 2.220147
-0.460978 0.511701 -0.353980
-1.028598 -0.122693 -0.229978
-1.185227 1.132227 2.896659
-0.247529 0.988586 0.445712
-0.136569 0.103239 0.018668
-0.334204 0.846882 1.395244
-1.748530 1.891960 2.339461
0.523183 0.893549 -0.075532
-1.042570 1.297951 2.980446
-0.614065 0.196401 -0.368343
-0.886250 0.265799 -0.020885
-0.243801 0.040835 -0.001785
-0.124000 0.146325 0.176726
-0.146814 0.767500 -0.244507
-1.750219 1.460783 2.177946
-0.569788 0.282141 0.925673
-1.592013 0.613431 1.567179
-1.017783 1.184050 0.906636
-1.077101 -0.224870 -0.134538
-1.323512 0.691565 1.197366
0.600021 1.034765 -0.019549
-0.826728 1.775673 1.712405
-1.124670 2.052012 2.207823
-0.781488 1.761012 1.975607
0.024991 0.776822 0.485832
-1.140437 0.785600 0.914650
-0.770952 1.479216 1.295509
-0.705197 0.616545 -0.075745
-0.499827 1.338499 1.177548
-1.550793 2.054759 2.307029
-0.887113 0.154179 0.076450
-0.346917 0.097342 0.466316
-0.609454 1.141372 2.029419
0.037868 0.315123 0.259517
0.004039 0.849151 0.415003
-0.770954 1.118117 2.262262
-0.741396 -0.130853 -0.263695
-1.414980 0.750767 2.117389
0.317486 0.699462 0.113574
0.041242 0.406000 -0.404381
0.037918 0.429422 -0.212414
-0.812459 1.084063 0.558025
0.283341 0.812126 -0.229155
0.183633 0.510273 -0.057298
-1.229566 0.965843 2.300768
-1.425727 0.742397 1.338434
-0.448303 0.143153 0.592875
-0.773576 0.376976 1.120136
-1.388352 2.021983 2.157144
-0.432969 1.215180 0.866404
-1.320733 1.572572 1.751272
-0.303245 0.489689 -0.424388
-0.949356 1.801531 1.847498
-0.321344 1.608855 1.669510
-0.882293 0.202248 0.080119
-0.659269 0.496197 1.432398
-1.070310 1.085660 0.868956
-0.900529 1.024580 0.574523
-0.402130 0.812679 1.512297
-1.136916 -0.291880 -0.174652
-1.627156 0.703718 1.842725
-0.464643 0.975964 0.250698
-0.524421 0.947962 1.763685
-0.112547 0.742947 -0.262342
-0.730874 1.379390 1.054425
-1.626448 1.321655 2.024223
-0.390336 0.127101 0.542494
-1.087897 0.581242 1.760416
-0.683712 0.927981 0.267639
-1.328696 1.530539 2.971436
-0.359741 0.679629 1.336182
-0.768455 0.523460 1.491263
-0.067417 0.551936 -0.333982
-1.309227 0.947518 1.178819
-0.334272 -0.022100 -0.300018
-0.979732 0.485931 1.062707
-1.023994 0.041633 -0.090548
-1.399575 1.775412 1.914067
-1.251556 0.958959 2.571533
-1.023635 0.478428 0.941252
0.391565 1.126071 0.138799
-1.674032 1.232349 2.110800
-1.331689 1.029854 2.196584
-0.124903 0.130220 0.099890
-1.026761 0.548071 0.708746
-0.800544 1.826888 2.118212
-1.547707 0.760052 2.044391
-0.858724 0.369362 0.982855
0.023250 0.282626 0.209100
-1.464688 0.948967 1.526239
-1.048074 1.304597 1.079003
-0.883522 0.198569 -0.020434
-0.571110 1.688294 1.688252
-0.403422 0.380689 1.052921
0.160724 0.619151 -0.260800
-1.462430 0.670899 1.462275
-1.048111 0.727424 0.643235
-0.992201 -0.041462 -0.223209
-1.255606 1.665832 1.777292
-1.446438 2.127306 2.367665
-1.232654 1.861029 1.968854
-0.471472 0.540415 1.344778
-1.555601 1.044778 2.435144
-0.862207 0.381002 1.016147
-1.324007 0.946060 2.262574
-0.885366 0.365998 0.901763
0.366614 1.132541 0.099100
-1.203648 0.594191 1.752808
-0.733388 1.787239 2.453333
-0.991710 0.062418 -0.071246
-0.966643 0.062600 -0.095391
-0.246701 0.916477 0.043683
-1.505298 1.001091 1.913436
-0.682312 1.259996 2.434717
-1.737336 1.273508 2.338489
-0.363651 1.206412 1.025695
-0.695381 1.414519 2.303822
-1.609001 0.600706 1.641955
-1.107365 1.996267 2.081724
-0.828222 0.396424 -0.105622
-1.351978 1.480639 1.691433
-1.672075 1.176264 2.663052
-0.554126 1.375088 1.156080
-1.015020 0.543252 1.547365
-1.141774 1.026914 0.947137
-0.574029 1.226262 0.737560
-0.308838 0.064284 -0.635730
0.202258 0.976099 -0.059662
-0.996827 2.034626 2.684551
-0.356552 0.288134 0.837687
-1.089704 0.674486 1.877073
-1.175440 1.091052 1.065830
-0.312440 -0.106779 -0.467156
-1.441112 1.112376 1.561154
-0.568114 1.024772 1.941392
-1.015251 0.487530 1.186500
-1.791053 1.813589 2.498552
0.078046 0.416704 -0.049019
0.080007 0.303318 -0.444476
-1.449063 0.760299 2.117056
-0.954743 -0.276102 -0.090249
-0.228999 0.201241 -0.641921
-0.846573 1.939199 2.587570
-0.095562 0.355189 -0.494094
-1.623079 1.122814 2.126386
-0.714839 1.785511 2.273644
-0.094333 0.608154 0.726213
-1.723953 1.393009 2.132475
-0.868315 0.418118 1.117283
-0.674018 1.358173 2.543200
-0.673453 -0.173840 -0.075370
-0.908414 2.005999 2.467067
-1.664221 1.153036 2.351713
-1.591818 1.149677 2.799441
-1.224940 2.063734 2.201480
-1.290950 1.078287 1.239954
-1.660276 1.807142 2.664434
-0.573372 0.067003 0.385524
-0.499767 -0.075857 -0.021127
-0.816392 1.144948 0.647349
-0.133107 0.662305 0.841197
0.076452 0.904212 -0.074057
0.439190 1.000361 -0.137762
-0.394614 0.029331 0.337192
-0.980306 -0.228180 0.060456
-0.924790 1.846154 2.826081
-1.274408 1.996825 2.633018
-0.285182 0.465405 -0.440870
-0.039252 0.148462 -0.014633
-0.489910 1.632626 1.985762
0.403513 0.779554 -0.146263
-1.624196 1.416880 2.007814
-1.682503 1.751544 2.129106
-1.581053 0.776657 1.964136
-0.177613 0.706135 1.030052
-0.822786 0.266741 0.564564
-1.668541 1.954350 2.291940
-0.488769 0.877419 0.000958
-0.710213 1.344774 2.445571
0.035493 0.875042 0.329764
-0.568626 1.343978 1.094771
-0.128821 0.616220 0.831123
-1.152965 1.441511 2.993890
-0.738319 0.755589 1.840949
0.108369 0.618541 0.440728
-0.961257 0.503701 0.607198
-1.292647 2.117360 2.308086
-1.597311 0.660921 1.836453
-1.501079 1.038865 1.640380
-0.816332 0.276182 -0.215457
-0.638183 -0.112174 -0.218109
-0.179864 0.866332 -0.100450
-0.579123 1.379996 2.109811
-0.679432 0.194350 -0.351727
-0.663664 0.328284 1.069274
-1.578228 1.572401 1.907407
-1.633526 0.767401 1.837125
-0.700588 1.149101 2.168988
-0.999702 1.453670 2.983166
-1.508271 1.852645 2.006504
-0.263480 0.975170 0.366598
-1.388877 1.921454 1.997667
-1.281455 1.547788 1.666139
-1.554077 1.215511 2.171749
-1.008068 0.908307 2.237352
-1.066128 0.541491 1.387968
-0.350216 1.140333 1.367729
-0.773856 -0.218176 -0.173986
-1.813812 1.350845 2.592137
-1.055418 -0.121254 0.141842
-1.588332 0.886816 1.706839
-0.779874 0.307707 0.916434
-1.483462 2.078535 2.297627
-0.438438 0.339325 1.004619
-0.234020 1.019592 0.674344
-0.412617 1.050233 0.490746
-1.483672 0.958426 2.236483
-1.614244 0.761105 1.649535
-1.008002 1.810902 1.890158
-1.163613 1.556672 1.549453
0.527513 1.001630 0.008513
-0.833167 0.199967 0.278163
-0.232409 0.013027 -0.102219
-0.445715 0.055399 0.401214
-0.837412 0.301364 0.752446
-0.861074 1.170277 2.685837
-0.582532 0.971078 0.280347
-0.000767 0.198640 -0.026507
-0.214213 0.787015 -0.223134
-0.585430 0.988574 0.354958
-0.738811 1.022562 0.451510
-0.692062 1.227465 0.726168
-0.881477 -0.018223 0.159608
-1.190791 2.134016 2.501387
-1.378355 1.803504 2.826239
-1.650704 1.135056 2.387719
-1.081535 -0.193995 -0.012039
-0.883140 0.361809 0.495438
-1.514399 1.019063 2.456297
-0.981495 0.935539 0.603109
-0.568903 1.687942 1.987038
0.319879 0.829910 -0.220535
-1.444575 0.584904 1.679351
-0.166848 0.957259 0.602015
-0.700261 0.089506 0.355337
-0.414989 1.153636 0.673136
-0.507045 0.266024 0.854836
-0.672055 1.463576 2.390287
-1.408457 2.137314 2.370470
-0.736190 1.438339 2.694713
-1.288663 0.853270 1.102745
-0.738642 1.405644 2.410759
-1.574875 1.070094 2.496121
-0.335694 1.647223 1.686936
-0.780923 0.241564 -0.286657
-1.519770 0.818952 1.871680
0.066799 0.176012 -0.447753
-1.392905 0.904112 1.295296
-1.585400 0.722442 1.973242
-1.084385 1.135075 2.853488
-0.737974 0.079291 0.316743
0.101329 0.289707 -0.298578
-0.949839 1.949120 2.079485
-0.651688 0.468085 1.349241
-1.430426 0.838550 1.964177
-0.660500 1.266910 2.476801
0.156257 0.462449 0.017451
0.274197 0.652243 -0.177098
-1.384974 0.942711 1.305256
-0.313840 0.046272 0.323292
-0.940228 1.935540 2.049614
-0.376381 -0.028646 -0.523057
-0.909818 1.961755 2.202926
-1.431368 1.355986 1.720410
-1.017229 0.957480 2.294504
-0.615944 0.242196 -0.343875
-1.368099 0.716533 1.251849
-1.636163 0.918684 1.814994
0.079911 0.349576 -0.278591
-0.299272 1.027315 0.531922
-1.187210 1.303261 1.255902
-0.776556 1.135077 0.604286
0.065416 0.942951 0.056588
-0.435380 1.508920 1.488925
0.151782 0.454954 0.063780
-1.663130 1.199756 2.127905
-0.591670 0.578132 -0.231258
-1.456216 0.914444 1.454487
-1.432055 1.867875 2.712696
-1.337733 0.972207 2.203424
-0.622447 -0.007433 0.288763
-0.719324 1.724772 1.614773
-0.741576 0.976648 2.117518
-1.658309 1.194375 2.768926
-0.790224 0.555890 0.020562
-0.532211 1.162200 0.607443
-1.499881 2.027804 2.231786
-1.071485 1.364535 1.194232
-0.751672 1.701883 2.700141
-1.207046 0.956503 2.572512
-0.890547 0.232646 0.063080
-1.613057 2.042556 2.372562
-0.881051 1.942292 2.201657
-0.801804 0.256171 0.676087
0.063194 0.301852 -0.018922
-0.004773 0.359634 0.443149
0.340605 0.922864 0.198727
-0.965149 0.499244 1.272259
-0.973761 2.037790 2.364747
0.061283 0.315852 -0.117458
-0.199101 0.231261 0.578449
-0.237323 1.013435 0.640614
-1.557308 0.801203 1.966170
-0.559443 1.065769 1.948067
-0.798419 -0.214211 -0.205954
0.051791 0.205778 -0.429646
-0.573910 1.695367 1.954046
-0.781407 0.060288 0.249291
-0.728194 0.667082 0.018893
-1.067544 2.121195 2.545898
-1.509912 0.763092 1.530753
-1.743588 1.428110 2.174616
-0.467747 1.478942 1.962609
-0.196915 0.630116 1.038672
-1.729479 1.286449 2.267791
-1.019685 1.524323 1.407912
-0.102786 0.314700 -0.543255
-0.653552 1.523762 2.494160
-0.897245 0.679931 1.872548
-0.746077 1.733154 2.224415
-1.479791 1.001071 2.473164
-0.336354 0.140733 -0.583892
-0.744176 -0.201421 -0.017976
0.160883 0.739042 0.340883
-1.282674 1.286180 1.400307
0.218223 0.722253 -0.266866
-0.743347 0.087865 -0.345743
-0.362276 0.836057 1.448905
-1.175483 0.528755 1.570536
-1.177228 1.618768 1.673460
-0.758051 1.372121 1.029376
-1.640039 0.746781 1.764195
-0.302572 1.209651 1.188360
-0.333869 1.230414 1.608109
-0.070106 0.117436 -0.081095
-0.888129 1.505879 1.325004
-1.296272 1.188843 1.364997
-0.834574 0.194878 -0.173006
-1.218657 1.329369 2.988909
-0.104129 0.129623 0.012259
-0.061073 0.705525 0.695474
-0.837889 0.704377 0.306773
-0.204713 1.004899 0.712088
-0.885478 1.283845 0.908806
-0.353410 0.123761 0.525230
-0.269511 0.651775 -0.298551
-1.343427 0.712375 1.217248
-1.196685 1.727901 1.796755
-0.198957 0.812772 1.087935
-0.796341 -0.218197 -0.034501
-0.233271 0.860114 -0.131114
-0.728319 0.645479 1.672746
-0.071853 0.374857 -0.465216
-0.765307 0.221349 0.520772
-0.717874 0.228672 0.702785
-0.743940 1.787437 1.934575
-0.050570 0.862538 0.488418
-1.302052 1.271152 1.424716
-0.694709 1.450612 1.292366
-1.236053 2.005429 2.643212
-0.831437 0.356680 1.000156
-0.513058 1.514990 1.353484
-1.417763 1.274920 1.643522
-1.177751 1.957377 2.738118
0.160570 0.672841 0.365468
-0.620797 0.942396 1.953093
-0.785399 1.216647 0.741896
-1.537190 1.072309 1.724282
-0.572768 -0.115843 -0.003080
-0.713337 1.382088 2.300828
-0.769630 0.839346 0.277109
-1.347856 0.648420 1.936885
-1.033651 -0.052453 0.136373
