ply
format ascii 1.0
comment (C) Hongzhi Wu, Sep 2013.
element vertex 1700
property float x
property float y
property float z
end_header
-1.020638 0.500348 0.824884
-0.446558 0.254655 0.808119
-0.258496 0.190516 0.575570
-0.578055 0.981335 0.320500
-0.519633 1.320820 1.088445
-0.308963 0.960537 0.192003
-0.321555 -0.078631 -0.604136
-0.884477 1.776189 1.720355
-0.346244 1.177473 1.515576
-0.374591 0.857224 -0.103788
-0.349966 0.764973 -0.215575
-0.175688 0.482305 -0.434931
-0.591208 0.235691 0.787890
-0.011912 0.568652 -0.337836
-0.292605 -0.109764 -0.565982
0.037489 0.567043 0.514955
-0.969799 2.045060 2.512885
-0.351571 0.262372 -0.537309
-0.005308 0.299342 0.147943
-1.123409 1.318595 1.252815
-0.227493 0.802025 1.166369
-1.505826 0.687120 1.510499
-0.620361 1.429503 2.410958
-0.825770 0.864490 0.381012
-0.598928 1.377622 1.173251
-1.264440 0.554570 1.583875
-1.093802 1.001828 2.631895
-0.125684 -0.047830 -0.461840
-1.007359 1.839307 1.908830
-0.109589 0.671081 0.788345
0.276212 0.684790 -0.247013
-1.044530 -0.287800 -0.212578
-0.858768 -0.246008 -0.050573
-0.646605 1.074388 0.495548
-0.869449 1.105641 0.645515
-1.072292 -0.022609 -0.038556
-0.818680 1.892843 2.249416
-1.155060 2.069106 2.248722
-0.329524 1.295473 1.352656
-1.084139 1.043395 2.418431
-0.846657 0.502767 1.477311
-1.604574 1.027827 1.805329
-1.242556 1.799660 2.147395
-0.039561 0.790966 -0.186157
-0.572019 0.891790 0.095177
-1.654657 1.319170 2.014610
-0.949584 1.395615 1.223252
0.396369 1.084199 0.019279
-0.848598 1.108010 2.590370
-1.757466 1.299359 2.446627
-0.644987 0.637659 1.590422
-1.236498 1.263759 1.304452
-0.130825 0.765927 0.799740
-1.210210 0.756157 2.090466
-0.662048 0.633955 1.634974
-1.004730 0.951873 2.509288
-0.325201 0.715592 -0.254763
-1.068686 0.508347 1.455711
-0.217600 0.944643 1.050120
-1.323838 1.043446 2.723829
0.349843 0.761665 -0.223308
-0.450827 0.138309 0.584543
-0.186734 0.589638 0.978490
-1.567016 0.686155 1.950657
0.203946 0.940730 -0.044117
-1.434099 1.079700 2.182386
-0.958421 1.042728 2.609545
0.051182 0.323470 -0.056427
0.059706 0.751743 0.452200
-1.210715 0.773999 2.124553
-1.357693 0.593880 1.653199
-0.981556 1.281039 2.925272
-0.624456 0.727679 -0.065259
-0.584235 0.185086 0.655921
-1.396760 1.081626 2.262814
-0.693217 0.414156 1.210830
-0.912524 -0.074913 -0.285707
-0.637365 0.118770 0.482059
0.038607 0.375239 0.354439
-0.352515 0.947454 1.398495
-1.097983 1.136985 2.844723
-1.789470 1.423699 2.345673
-0.199180 0.529608 0.971685
-0.689687 1.615688 2.537443
-0.768804 0.458036 -0.147030
-0.560451 1.783180 1.906562
-0.743953 -0.177892 0.029969
-1.192676 0.654469 0.991951
-1.632991 1.162815 2.098580
-1.625698 0.710284 1.940596
-1.145167 1.819380 2.210581
-0.289477 0.006382 -0.591774
-0.321284 0.130884 0.518180
-1.094690 2.048454 2.234106
-1.624719 0.597121 1.635650
-0.386968 1.660581 1.700470
-1.064464 1.025638 2.649626
-1.471382 1.008542 1.559590
-1.572391 1.104799 1.759208
-0.169120 0.537923 -0.392053
-0.325570 0.283908 0.805919
-1.404924 1.557090 1.833356
-0.374919 0.485594 1.156844
0.117464 0.178211 -0.313388
-0.332085 1.408543 1.433004
-0.992836 1.285991 1.001343
-1.015759 0.965654 0.670507
-1.507341 1.371023 1.863401
-0.317990 1.156586 0.960643
-0.504246 0.554844 -0.305077
0.174435 0.861832 -0.189543
-0.335444 1.072376 1.324960
-1.176489 -0.219571 -0.141493
0.209760 0.570662 -0.170998
-1.487910 1.587705 2.012884
-1.469112 0.764052 2.132523
-1.627810 1.119616 2.440620
-0.836403 0.254264 0.284307
-1.006466 1.095701 2.463261
-0.498957 0.021341 -0.302713
-1.278376 1.251726 1.369013
-0.001044 0.499094 -0.344286
-0.770667 0.226797 0.466025
-0.910998 0.556721 1.668934
-1.341005 1.140553 1.428005
-0.133121 0.923932 0.511709
-0.850163 0.618248 0.278869
-0.416991 1.367419 1.849765
-0.796565 1.397575 1.076518
-0.640092 0.616468 -0.161733
-1.042304 0.499797 1.278283
-0.731967 1.388392 2.659636
0.061124 0.645001 0.499504
-0.966930 1.172091 2.786985
-1.154191 0.911071 2.462210
-0.190646 0.129676 -0.700928
-1.465067 0.653846 1.493856
-0.715545 0.236931 0.747297
-1.599781 0.651944 1.628737
-0.735847 1.802482 2.353735
-1.246081 0.705442 1.035111
-1.564956 0.643946 1.529295
-0.544345 1.596147 2.067324
-0.655435 1.799735 1.890010
-0.598864 0.820100 0.008080
-0.947814 -0.145899 -0.288635
-0.778919 1.782175 1.796366
-0.849606 1.855830 2.182823
-0.948064 0.991481 0.605218
-0.005397 -0.014666 -0.482646
-1.524371 0.987163 1.625061
-1.367011 1.520888 1.800233
-0.853446 1.425928 2.875501
-1.055206 1.146038 0.952128
-0.552972 1.656972 2.021402
-0.420560 1.001300 0.390626
-1.392323 1.537459 1.775962
-0.291567 -0.043796 -0.349767
-0.803114 1.853744 2.128465
-0.147882 0.816823 -0.131814
-0.126906 0.865817 0.713758
-1.123587 0.697844 0.855899
-0.375374 1.084305 1.466581
-0.670217 -0.116281 0.128352
-0.973804 0.507676 1.389697
-0.799680 -0.157188 0.060283
-0.791651 1.811932 1.913316
-1.491209 1.017897 2.495412
0.429831 1.128613 0.030820
-0.944420 0.550098 1.617522
-0.391475 0.553428 -0.365062
-1.613042 0.986835 1.732052
-0.989903 1.505070 1.404463
0.046707 0.618331 0.568054
-1.346759 2.105040 2.309199
-1.449509 1.024533 1.507544
-0.802723 1.568956 2.838433
-0.881357 0.160619 0.092474
-1.087404 1.610378 1.583178
-0.107506 0.261709 -0.629527
-0.639879 1.107530 2.042466
-1.339360 0.803685 2.185658
-1.182111 1.077677 2.786694
-0.929457 0.383673 0.604670
-1.082722 -0.022706 0.000342
-0.442970 0.729292 1.501824
-0.497974 -0.064849 -0.118561
-0.088842 0.055911 -0.178490
-0.667111 0.651930 -0.081247
-0.864754 1.127934 2.631321
-0.152212 0.121156 0.166689
-1.090427 0.601908 1.724642
-1.162329 1.854310 2.120438
-1.291944 1.761577 1.929916
-1.613986 1.327874 2.093983
-0.353060 1.169167 1.583629
-0.170905 0.065826 -0.027640
-0.859687 1.848260 2.026949
-0.931148 1.079511 2.331506
-0.295392 1.059826 0.645573
-1.137459 2.035767 2.173061
-0.714065 0.220032 0.677884
0.342626 0.860636 0.212799
-1.210443 1.837119 1.909288
0.005671 0.396152 0.453872
-1.312955 1.809964 1.992798
-0.291107 1.060637 1.190255
-1.090220 0.698279 0.777375
0.494691 0.909165 0.100368
-1.005969 2.046842 2.349346
-0.673176 1.726406 2.254836
-1.384797 0.557500 1.431598
-1.056413 0.655128 0.682361
-1.536950 0.711299 1.616783
-0.424575 0.692303 1.439842
-0.055301 0.765583 -0.219587
-0.306481 0.437039 1.021780
-0.914514 1.817041 2.014732
0.189749 0.986686 0.133228
-1.368426 0.879872 1.305119
-0.469915 0.783451 -0.150431
-1.234103 1.286335 1.333150
-0.252992 0.119902 0.439595
-0.804089 0.379065 1.107541
-0.050683 0.549541 0.644120
-0.379387 0.912824 0.015946
-0.806001 0.436523 -0.100727
-1.481674 1.896241 2.045068
-1.224941 1.418246 1.472758
-0.025293 0.749890 0.582723
-1.277413 1.783737 1.951282
-0.747921 1.579850 2.724292
-0.946384 1.062235 2.433706
-0.831625 1.369729 1.057227
0.133159 0.789269 -0.277066
-0.355291 1.486647 1.471443
-0.777058 0.693324 1.776104
-1.536728 2.011402 2.247101
-0.905107 1.454749 1.214782
-0.503230 1.022260 1.807309
-1.382147 0.626038 1.373754
-0.562029 0.538103 1.420881
0.165486 0.656511 -0.279495
-0.702839 1.058966 0.478450
-1.215672 1.651676 1.745854
-1.114588 1.500848 1.505003
-0.141790 0.733638 0.826476
-1.417966 1.107482 1.466391
-1.592709 1.282751 2.144354
-1.517286 0.965202 2.211707
-1.081408 -0.059167 -0.101018
-0.632562 0.888001 1.836305
-0.323098 1.435663 1.532191
-0.791258 0.513098 1.409514
-0.818369 1.899431 2.347194
-0.917464 1.442519 1.173674
-1.196844 0.622335 1.815061
-0.869158 0.328038 0.088075
-1.472653 1.920380 2.067279
-0.752083 1.814242 2.169175
-0.571152 1.689377 1.693927
-0.494518 0.712409 -0.201241
0.252107 0.965060 -0.128478
-0.111301 0.797746 -0.215459
-0.072905 0.786892 -0.199214
-1.101553 0.558643 1.465679
-0.229048 0.502285 -0.427266
-0.597985 0.888258 0.116953
-1.003621 0.521502 0.691867
-0.016016 0.226695 0.180905
-1.293603 0.532599 1.469650
-0.289493 0.714549 -0.263533
-1.060437 -0.153654 -0.226969
-0.444679 0.601586 -0.276287
-0.907322 1.150071 0.741521
-1.629621 1.121681 2.157361
-1.141673 0.636523 1.842065
-0.709124 0.319127 -0.242390
-0.418120 0.247487 0.779405
-0.344905 0.258864 0.763467
-0.630007 0.691504 1.668955
0.164955 0.627085 -0.299432
-1.238004 1.206627 1.229239
-0.772050 0.131862 -0.330614
0.130111 0.632101 -0.316672
-0.493961 1.019865 0.428216
-0.296931 0.265867 0.745438
-0.111795 0.630004 0.769539
-1.297932 1.157344 1.337122
-0.342346 1.409406 1.615222
-1.540114 1.873727 2.073707
-0.732390 0.445178 -0.204413
-0.182046 1.006717 0.948689
-0.713000 1.513054 2.320151
-0.323465 0.730038 1.315706
-1.199956 1.264776 1.224185
-0.953406 1.946818 2.088804
-0.581055 0.907250 0.152723
-0.303693 0.022626 0.228098
-0.927180 0.976789 2.491761
-0.723966 1.451627 2.271062
-1.007636 1.009038 2.359916
0.446035 1.023849 -0.065574
0.432150 1.116016 -0.021952
-0.638523 0.761243 1.729336
-0.791281 1.000849 0.465078
-0.676102 0.452692 -0.257071
-1.274878 0.805796 2.190799
-0.612542 1.132647 2.028413
-0.789816 1.004050 2.184464
-1.119918 1.094659 1.012473
0.238017 0.973720 0.225858
0.087349 0.174936 -0.493646
0.456865 1.062572 0.173710
-0.831254 1.889446 2.136093
-0.870329 1.946554 2.315182
0.460964 1.010941 0.203122
-1.179949 0.557106 1.782456
-0.787183 0.172761 0.359849
-1.430059 0.772918 2.143625
-1.662434 1.305071 2.045331
-1.043046 -0.308965 -0.072598
-0.401855 1.260615 0.907559
-0.705900 1.838938 1.909605
-1.165684 1.055397 1.025369
-0.869224 1.657817 1.503992
-0.374353 0.208676 0.678036
-0.717219 0.051890 0.304304
0.002391 0.338591 0.347463
-1.083467 -0.185746 -0.205928
-1.384266 0.990021 1.333072
-0.186447 0.937509 0.175162
-1.017885 0.037187 -0.023175
-0.907885 0.735499 1.940130
-0.730021 -0.194364 -0.009100
0.028004 0.191730 -0.600350
-0.054652 -0.006358 -0.392663
-0.856750 1.235285 2.734335
0.023021 0.282305 0.164354
-1.668271 1.608615 2.025947
-0.816202 0.208195 0.367432
-0.830248 0.143344 0.269250
-0.335614 0.433204 1.053349
-1.156994 1.455195 1.402983
-0.125282 0.418851 -0.444348
-0.150483 0.554615 -0.362272
-0.659463 0.868990 0.148504
-1.301472 0.964303 1.151134
-0.857463 1.560581 1.441608
0.037060 0.326629 0.274272
-0.964812 0.072422 -0.008287
-1.616896 1.123049 2.550873
-0.233825 0.227011 0.607591
-0.636583 1.372629 1.096624
-0.673911 -0.093516 0.158270
-1.549428 1.661519 1.958382
-0.205114 0.942122 0.225876
-1.213535 1.021695 2.686867
-1.078171 -0.315950 -0.249519
-0.256282 1.062203 0.750817
0.282833 0.875235 -0.127836
-1.099858 0.675784 1.921375
0.006163 0.672067 -0.314224
-1.493276 0.794434 1.515195
-0.506889 1.609608 1.636617
-0.270660 1.055152 0.668270
-0.790463 1.017927 0.495053
-1.429910 1.582660 1.902620
-1.373383 1.542939 1.825199
-1.439516 1.699281 2.031515
-0.324693 0.027936 0.282887
-0.715700 0.835950 1.929758
-0.573822 1.026283 0.393858
-0.856607 0.477518 1.301000
-1.087138 0.912931 2.449609
-1.417431 0.913476 1.350738
-1.533667 0.615158 1.789311
-1.692967 1.895344 2.276122
0.098315 0.736715 -0.277337
-0.616684 1.505942 2.383580
-1.390395 1.254479 1.531358
-1.129083 1.155102 2.891724
-0.152310 0.030551 -0.084865
-0.784630 0.786296 1.951157
-0.335044 1.467476 1.451839
0.155672 0.571250 -0.232261
-0.829493 1.579768 1.437435
-1.270539 0.572642 1.699277
-1.072693 1.738649 1.740941
-0.519077 0.110459 0.501485
-0.757990 0.194694 0.467112
-0.881924 0.291578 -0.005618
-0.659302 1.787071 1.817110
-0.490027 1.587383 1.576828
-1.241115 1.845279 2.018937
-1.116316 0.823057 0.791504
-0.476478 0.416371 -0.413592
-0.843051 1.183010 2.669145
0.007113 0.515714 0.619227
-0.482069 -0.006742 0.310500
-0.784847 1.203797 0.698625
-0.659986 0.091009 -0.362816
0.604204 1.064186 -0.051718
-0.952837 0.460894 0.910405
-1.512658 1.200384 1.717108
-0.680905 1.690700 2.280043
-0.400820 1.575045 1.789275
0.048674 0.553345 0.605050
-1.460081 0.907152 1.456713
-0.751652 1.823296 2.312500
-0.764110 -0.218876 -0.062332
-1.123271 1.335666 1.222373
0.455853 0.919081 0.074201
-0.676181 -0.151283 -0.211527
-0.531849 1.505468 2.059520
-0.149700 0.364621 0.562008
-0.773231 0.611827 0.096505
-0.401519 0.849034 1.519274
-0.103274 0.081122 -0.123938
-1.598375 0.829051 1.739341
-1.066058 0.538260 0.895201
-0.771177 1.844992 2.329215
-1.508608 0.650430 1.894148
-1.395950 0.690294 1.341335
-0.839690 1.807547 2.054619
-0.542715 1.284904 0.934045
-0.934188 -0.250139 -0.029359
-0.358569 0.679614 1.330869
-0.327747 0.991504 0.345974
-0.859332 0.398848 0.375148
0.139481 0.571576 0.428632
-0.805910 0.286834 0.774567
-0.748078 0.964687 0.490734
-1.289309 0.693391 1.997165
0.418595 1.020432 -0.084624
-0.868620 0.111675 -0.213730
-0.671479 1.687220 2.365957
-0.868147 0.306583 0.616411
-0.232265 1.019895 0.675419
-0.818813 0.248393 0.479964
-0.948750 1.158355 0.798175
-0.613669 0.018370 0.323512
-0.043996 0.560873 -0.324633
-1.467486 1.474536 1.880338
-0.978365 0.459678 0.987409
-0.950444 0.731346 0.492741
-0.036597 0.811035 0.475574
-0.584418 0.771819 -0.063191
-0.383335 0.726404 1.412856
-0.285897 -0.071470 -0.602467
0.104978 0.543904 0.476127
-1.045020 1.156284 2.503075
-0.965597 1.060493 2.638985
-0.308371 0.516950 -0.417003
-1.324410 0.573714 1.598929
-0.268206 0.989616 1.182970
-1.492182 0.753685 2.032456
-0.704280 0.734035 0.050356
-1.487252 2.108212 2.355898
-0.537735 0.377847 -0.395685
-0.705824 1.834580 2.017118
-1.159174 0.518219 1.452711
-0.673260 1.811599 1.923122
-1.524011 1.563893 2.029394
-0.717170 1.371273 2.273831
-0.878815 0.568848 1.672143
-0.674993 0.855251 1.868809
-0.623621 0.608324 1.524603
-0.345414 0.340268 -0.494493
-0.476500 0.960947 0.210518
-1.700486 1.272673 2.201042
-0.743154 1.816113 2.261580
-0.733550 0.518423 1.474763
-1.198377 1.060327 1.089709
-0.365318 1.360588 1.293838
-0.568031 1.364448 1.169959
-1.528906 1.095838 2.716093
-0.681098 1.568917 2.539818
-0.738131 1.753534 2.544249
-0.794344 1.368622 2.442644
-0.069600 0.915067 0.571820
-1.150908 0.535221 1.523869
-0.303891 0.613691 1.202491
0.262721 0.773189 -0.262227
-1.652681 0.731905 1.688275
-1.604338 0.624388 1.606884
-1.368186 0.868982 2.260044
-0.280124 0.457057 1.012973
-1.540330 1.384064 2.049035
-0.425208 0.584252 1.336717
-0.076776 0.187054 0.113091
-1.308136 1.587161 1.810852
-1.468281 1.209730 2.078266
-0.343318 -0.004705 0.186659
-0.942224 0.047634 -0.173901
-0.148886 0.699049 0.868907
-0.730095 1.049418 2.137759
-0.467302 1.664185 1.795418
0.157539 0.250198 -0.536172
0.315284 0.918381 -0.198420
-1.501391 1.042135 2.557217
-0.663019 0.540505 1.487545
0.004580 0.661453 0.556287
0.315644 0.753258 -0.246650
-1.682949 1.802301 2.185147
-1.552890 1.584253 2.061228
-1.025431 1.075402 2.439605
-1.543125 1.628021 1.963571
-0.442095 1.224923 1.824976
-0.507015 1.239243 0.826317
-1.705289 1.565278 2.086347
-0.732993 0.695736 0.056175
-0.748821 1.757319 1.691736
0.589738 1.058764 -0.108525
-0.965373 0.068426 0.067312
-0.521302 -0.046816 -0.210627
-1.578746 1.021571 1.782840
-0.955753 1.020867 2.340858
-0.973665 1.080407 2.443679
-0.979621 1.699961 1.611082
-1.429875 0.978976 1.404248
0.034175 0.875674 -0.127167
-1.140697 1.587498 1.582248
-1.064392 0.623569 0.728515
0.541343 1.055552 -0.110082
-0.463522 1.146030 1.845239
-1.075454 1.159215 2.861524
-1.436360 2.047139 2.243569
-1.075084 -0.324733 -0.039993
-0.733289 1.682836 1.597650
-1.022201 1.492575 1.423420
0.141985 0.559628 -0.266252
-1.442818 1.553091 1.877173
-0.978446 1.795645 1.824939
-0.281913 0.741685 1.247859
-0.704787 1.311913 2.510496
-0.010653 0.238695 -0.647443
-0.848595 1.076662 2.558174
-1.637285 0.659372 1.750002
-0.327312 -0.020913 -0.111998
-0.539760 0.618260 1.491346
-0.876098 1.961366 2.665730
-0.425754 1.078138 0.535891
0.352818 0.701389 0.070314
0.017372 0.011455 -0.447386
-0.036890 0.886160 0.301448
-0.325859 1.178783 1.306860
-1.330843 0.874200 1.194378
-0.451310 1.334233 1.893572
-0.104154 0.643943 -0.319358
-0.745611 0.307056 0.895187
-0.140393 0.828747 0.833250
0.510334 0.998247 -0.097905
-0.686752 0.942236 2.034173
-0.673350 1.036524 2.069616
0.535223 0.900950 -0.118508
-0.867847 1.200534 2.462881
-0.215916 0.372771 0.700709
-0.740618 1.540945 2.698533
-0.803597 1.067168 2.264264
-0.055108 0.443719 0.620786
-0.701515 -0.200615 -0.133424
-0.120446 -0.039195 -0.362725
-1.360682 2.054954 2.213732
-1.637900 0.767908 1.718814
-0.036829 0.203841 0.051210
-1.276354 0.695155 1.132612
-0.408715 0.982845 0.272904
-0.388162 0.321214 0.910146
-0.131178 0.618327 0.829847
-1.609667 1.136440 2.681888
-0.914999 0.435819 0.544672
-0.770839 0.054933 0.247309
-0.681642 1.466192 2.229369
-0.887481 0.886910 2.159340
-1.048086 2.087060 2.418981
-0.752565 0.729688 0.153400
-0.608969 0.144682 0.543199
-1.434547 1.754230 1.978253
-0.692746 0.169369 -0.352523
-0.453698 -0.067160 0.094977
-1.003709 0.884965 2.218821
-1.612494 1.242758 2.072100
-1.570827 1.098382 2.152657
-0.589842 0.401132 1.189451
-0.188820 0.112307 0.284785
-0.293726 -0.086805 -0.536755
-0.128933 0.343892 0.633730
-1.005402 1.741233 1.688195
0.042114 0.290613 -0.061016
-0.794754 1.235315 2.300280
-0.775039 1.280388 0.873313
-0.613949 1.023000 0.415826
-0.775558 0.260747 -0.280161
-0.409167 0.980758 1.563192
-0.275223 0.908805 1.286580
-0.908994 0.514610 1.321306
-0.057292 0.614318 -0.339926
-0.941496 1.850094 2.158761
-1.149864 0.533032 1.163598
-0.114314 0.823222 0.718054
0.636418 0.982633 -0.059257
-1.263216 0.583758 1.214159
-0.877652 0.319636 -0.024864
-1.019311 -0.101833 0.143237
-0.968286 -0.246466 -0.196877
-0.949723 1.354638 1.140379
-1.063444 0.557434 1.632360
-1.346315 1.125850 1.398130
-0.832813 0.638538 0.243593
-0.392143 1.109569 1.655219
-1.113058 1.680243 1.700973
-1.557904 0.669604 1.567819
-0.405716 1.485565 1.487764
-0.486625 1.541945 1.989528
-1.109022 1.958838 2.006904
-1.364113 0.575583 1.350694
-1.145913 0.978255 2.593976
-0.352285 1.177689 1.448346
-0.709829 1.544148 2.384869
-0.926581 -0.221679 -0.149064
-0.594564 0.479184 1.262278
-0.264472 1.072728 1.038447
-0.767599 0.843469 0.277061
-1.516166 1.815925 1.978651
-1.601825 1.062176 1.887186
-1.273849 1.903775 1.913762
-0.924870 1.056020 2.568859
-1.081976 1.900691 2.067672
-1.609504 1.900087 2.180208
-1.147044 2.136811 2.438950
-0.837677 0.868716 2.092117
-1.579806 1.259258 2.085101
-0.487628 1.456584 1.984760
-1.164358 0.815062 2.186571
-1.812229 1.461165 2.387756
-0.747279 1.566944 2.391236
-0.422931 1.455171 1.877038
-0.754839 0.742592 1.814437
0.076682 0.787731 0.396991
-1.159329 1.025442 0.994867
-1.074326 0.711119 0.714037
-0.670443 -0.144599 0.069021
-0.119114 0.218014 -0.681258
0.296820 0.591722 0.191393
-0.949442 0.677765 0.507198
0.174526 0.759714 -0.283084
-1.483352 0.903372 1.544025
-0.344105 1.148663 0.807068
-1.104443 1.940518 2.043646
-0.770880 1.408765 2.732227
-1.613964 1.061772 1.933250
-1.717013 1.301563 2.205618
0.003456 0.233670 -0.578605
-0.885947 0.289689 0.032345
-0.731303 1.455471 2.675136
-0.794266 0.198709 -0.288921
-0.371329 1.021352 1.469436
-0.463225 1.563475 1.891926
-1.617075 1.116827 2.517059
-0.782822 1.545668 2.803313
-0.714774 1.278688 2.497746
-0.276366 0.059410 0.057718
-1.563038 0.553026 1.591380
-0.628715 1.388537 2.184292
-0.467317 0.718127 1.522717
0.177099 0.234645 -0.447208
-1.724313 1.485837 2.122225
0.032940 0.463090 -0.253825
-0.352633 1.532974 1.742371
-1.007940 0.461830 0.919927
-0.728475 -0.162787 -0.262806
-0.004980 0.562437 0.592821
-1.388724 1.990973 2.118493
-0.096302 0.068009 -0.003632
-0.927396 1.236613 0.883095
-0.092198 0.410417 -0.444792
-0.073692 0.673139 -0.314867
-0.863493 0.546703 0.373237
-0.446520 0.396004 1.115986
-0.790070 0.592788 0.137866
-0.754124 0.322747 -0.207633
-1.466517 0.624057 1.413008
-0.933740 -0.220813 -0.293389
-1.508705 0.992424 2.298740
-0.314752 1.464618 1.559687
-0.873055 0.590514 0.341206
-1.465181 2.002927 2.182233
0.442615 0.792871 -0.100171
-1.530271 1.197255 1.823086
-1.342339 0.774822 1.198782
-1.543749 1.320821 2.018155
-0.774281 1.295522 2.669454
-0.180600 -0.004622 -0.465930
0.160905 0.964706 -0.023974
-1.497039 0.871122 1.544183
-0.889077 0.619563 0.399497
-0.680660 1.432303 2.574451
-0.838805 1.177822 2.356081
-0.340665 0.043820 0.334482
-0.579055 1.512844 1.352812
-1.261822 0.535203 1.423995
-1.609308 1.213792 2.188482
-0.940678 0.504971 1.259117
-0.682958 1.616340 2.503706
-0.172965 0.684676 1.001225
0.386420 0.713364 -0.107449
-1.511377 0.583631 1.529929
-0.933883 1.950083 2.126227
-0.163167 0.394077 0.722478
-0.410872 -0.031061 0.066843
-0.482418 0.616035 1.424726
-1.282119 0.950404 2.413450
-1.703319 1.215536 2.630629
-0.764579 1.161605 0.652164
-0.883503 1.308969 2.834500
-0.398499 1.747042 1.789723
-0.772203 1.325995 2.689276
-1.357452 1.851909 1.884392
-0.833242 0.462270 0.035112
-0.140834 0.730954 0.860946
0.388759 1.029587 -0.140955
-1.703289 1.517913 2.071445
-0.326638 1.033437 0.503532
-0.972048 1.748931 1.873722
-0.974542 0.576649 0.561550
-1.053431 1.396017 1.211593
-0.324258 0.844292 -0.171946
0.372784 0.934460 0.181449
-0.698159 0.253643 -0.318326
-0.922726 1.837012 1.919894
-1.440171 1.617560 1.856368
-0.160534 0.765065 -0.221248
-0.869615 1.959097 2.566235
-1.433009 1.274175 1.686379
-0.889515 0.368217 0.508527
-0.750867 0.011451 -0.349201
0.045291 0.231747 -0.620207
-0.711370 1.660831 2.171541
-1.014880 1.017738 2.612703
-0.918186 0.480798 1.199102
-0.487696 1.102840 0.531911
-0.715920 0.210793 0.639839
0.268079 0.743592 -0.277335
-0.868598 0.352715 -0.024058
-0.183701 0.521595 0.864324
-0.279470 0.577130 1.128468
-0.413217 0.364464 -0.464683
-0.882895 1.973501 2.537005
-1.268785 1.002693 1.156060
-1.361234 1.041643 2.704919
0.346042 0.684471 0.019653
-0.521699 1.620995 1.820269
-0.873947 1.465880 1.223649
-0.496656 0.468740 1.225456
-0.268550 0.248146 0.682893
-1.267482 1.935241 1.962735
-1.503099 1.063401 2.630261
-0.434739 0.723022 -0.218973
-0.829628 1.913949 2.378189
-0.017217 0.381954 0.475870
-1.367736 0.633684 1.873690
-1.318513 0.619052 1.292102
-0.208652 0.071297 -0.680044
-0.874246 1.257894 0.911328
-1.128026 1.447061 1.484773
-1.420493 1.892789 1.994648
-1.538769 0.941217 1.671969
-0.152597 0.804423 0.977048
-0.687310 1.740100 2.209517
-1.181089 0.524889 1.411942
-0.762742 0.604721 1.647515
-1.104020 1.110056 0.943445
-0.958908 0.519191 1.222610
-0.861209 1.753062 1.682852
-1.197004 1.825303 1.976414
-1.513017 0.844801 1.589257
-0.364035 1.625356 1.740295
-0.754805 1.703448 2.688896
-1.073218 0.499856 1.044636
-0.516968 1.701782 1.697709
-1.480753 0.664223 1.464996
-0.345904 1.435170 1.638706
-1.308685 1.024843 2.273579
-1.281812 1.469079 1.551579
-0.551775 1.724734 1.849544
-1.516388 0.918522 1.583357
-0.263673 0.654685 -0.303738
-0.477880 1.100981 1.868487
0.179811 0.543677 0.284005
-0.525553 1.367874 1.316801
-0.708284 -0.216556 -0.173943
-1.469168 1.150184 1.671995
-0.174813 0.804943 1.004888
-0.338093 1.508143 1.686281
-0.925579 0.934375 0.523432
-1.551603 1.010338 1.758631
0.034189 0.788961 -0.214199
-0.422800 1.079174 1.738625
-1.014059 0.513881 1.335145
0.062300 0.320244 -0.239040
-0.688305 1.275697 0.874381
-0.165767 0.935828 0.266975
-0.993341 0.551298 1.738868
-0.710823 1.383228 2.476372
-1.431807 1.722159 1.933261
-1.273830 1.988587 2.067772
-1.217146 1.070663 1.118321
-1.145592 1.877357 2.010156
-1.101899 1.111778 2.498013
-0.756222 1.341408 0.968213
-0.561110 1.422119 1.336674
-0.017084 0.344859 0.434728
-1.282139 0.715467 2.061941
-0.652231 0.173953 0.594365
0.103961 0.927333 0.103051
-1.438890 1.148338 1.591345
-0.466862 1.003374 0.367006
-0.067620 0.470121 0.670583
-0.785746 0.560771 0.058338
-1.015052 1.038212 2.515809
-1.624007 0.682163 1.532060
-1.595148 1.568314 1.899730
-0.709199 -0.088581 0.158267
-0.687434 1.081445 2.087389
-0.695521 0.310285 1.016089
-0.918189 0.463267 1.125710
-1.459405 1.107514 2.185931
-0.874976 1.811611 1.851335
-0.177419 0.069958 -0.594654
-0.849034 1.446996 1.187602
-1.431867 1.229926 1.628986
-0.812541 0.482414 0.119589
0.262274 0.657364 -0.217941
-0.844142 0.863921 0.409732
-0.954877 2.025807 2.400922
-1.494722 0.859374 1.972434
-1.490018 1.432622 1.876299
-0.863309 1.051156 2.428411
-0.889062 0.779984 1.989151
-0.445007 0.021334 -0.398730
-1.159328 0.623584 1.816541
-0.363985 0.108078 0.483869
-1.527195 1.657856 1.930278
-0.387653 1.632458 1.620127
-1.042711 1.602625 1.530418
-1.352888 1.788977 2.013270
-1.009267 0.955402 2.270854
0.219410 0.602337 0.304139
-0.333603 1.116532 0.710305
-0.663191 0.168177 -0.369929
-0.906866 1.014756 0.574535
-1.353847 1.992090 2.103439
-0.879348 1.878205 2.146943
-0.963393 0.787141 0.532784
-0.849369 0.369882 -0.076969
-0.923153 1.562595 1.476624
-1.217797 0.526151 1.333770
-0.792515 1.635120 1.460347
-0.228321 0.019781 -0.079020
-0.307533 1.231494 1.211965
0.505150 0.990304 0.142475
-0.635341 0.252104 -0.346040
-0.874773 0.481730 1.269777
-0.328457 0.982404 1.372006
-1.500081 0.676343 1.998309
0.197528 0.478881 0.112364
-0.676560 1.741461 1.699289
-1.452706 1.108939 1.622133
-1.236836 1.037166 2.390197
-1.096078 1.942133 1.953788
-1.153886 0.738193 0.960270
-1.180334 1.049948 2.432987
-1.471501 1.074632 1.627542
-1.547446 1.020529 2.246130
-1.515418 1.620613 2.015208
-1.143886 1.244690 1.133389
-1.654120 1.389011 2.015618
-0.474257 1.527065 1.961989
-1.308243 2.118306 2.331176
0.582789 1.004218 0.081125
-1.618312 1.306489 2.007270
-0.831538 0.524538 0.219506
-1.290458 1.447517 1.597688
-1.486755 2.042601 2.257033
-0.872141 0.182179 0.161249
-0.195633 0.556369 0.950694
0.487297 1.051483 0.131541
-1.181648 0.987926 2.616180
-1.635356 0.799198 1.739507
-0.909868 1.295370 2.855200
-0.502167 0.969292 0.420643
-0.514732 1.428286 2.030921
0.094947 0.711625 -0.242360
-0.326937 1.342585 1.569223
-0.329433 -0.007550 -0.258219
-0.653253 1.651973 2.360180
-0.443304 1.271320 1.834098
-0.482509 0.061113 0.404955
-0.690278 1.312911 2.541921
-0.023848 0.170286 -0.099050
-1.474473 1.125775 2.028663
-0.880381 0.382036 0.981329
-1.143328 0.684811 0.905834
-0.461137 0.735570 -0.201952
0.395240 0.867464 -0.186591
-1.352683 0.906339 1.248472
-0.945010 2.039730 2.571888
-1.418817 0.848464 1.326822
-0.859702 1.233716 2.505363
-1.189768 0.883322 2.266201
-0.056275 0.891893 0.373130
-1.215792 1.043754 2.433991
-1.508614 1.171208 2.133320
-1.560443 0.667381 1.601380
-0.532247 0.192169 -0.396994
-0.182886 0.659958 0.845521
0.066816 0.490173 0.427781
0.446322 0.937373 0.153907
-0.980078 -0.194342 0.093156
-0.282656 0.867665 -0.090967
-0.111306 0.147559 0.148636
-0.886738 0.978474 0.526246
0.495350 1.082414 -0.038227
-0.178712 0.037191 -0.050468
-1.528853 1.708739 1.886737
-1.043553 -0.100535 -0.163824
-0.938670 -0.067158 0.118707
-1.426373 1.081813 2.796680
-1.590086 1.156083 1.885235
-1.026910 1.466716 1.330285
-0.092039 0.194865 0.218120
-0.063302 0.233584 0.311823
-0.902043 0.359683 0.633031
-1.363257 1.751484 1.953354
-0.889791 0.181624 -0.066463
-1.549356 1.507542 2.047745
-0.539190 0.779990 1.674184
-1.294828 0.763413 1.126572
-0.384601 0.128254 0.538195
-0.764167 -0.160510 -0.282504
-1.446400 1.853431 1.963165
0.014739 0.232367 0.028903
-1.644446 1.883873 2.200364
-0.345022 1.207205 1.102680
-1.758657 1.653650 2.222395
0.111873 0.519361 -0.217670
-1.722508 1.347872 2.182590
-1.124991 -0.107220 -0.086269
-0.162256 0.898801 0.088943
0.192336 0.929607 -0.154823
-0.395003 0.988905 1.533316
-0.424466 1.109192 1.758285
-0.850924 0.113620 -0.242341
-1.275755 1.402609 1.495051
-0.200369 0.019415 -0.552420
-0.611751 0.263397 -0.320508
-0.739442 -0.210537 -0.189066
-1.751405 1.345443 2.302292
-0.055536 0.877638 0.142040
-1.567992 0.792424 1.573026
-0.197381 -0.002930 -0.525740
-0.363473 1.172759 0.888059
-0.306962 0.768277 -0.225604
-0.270418 0.088971 -0.669424
0.004862 0.910704 0.129697
-0.909633 0.118633 -0.029279
-0.480765 0.238627 -0.432726
-1.610826 1.635821 1.953030
-0.711805 1.001295 2.044556
-0.896513 1.038758 2.552559
-1.167780 1.370552 1.307118
-0.804145 0.644986 1.743716
0.339026 0.718000 0.100704
-0.866340 0.337469 0.827227
-0.717496 1.385857 2.407704
-1.464499 0.869370 2.038409
-0.570946 0.541303 -0.262608
-0.004516 -0.044926 -0.446369
-0.780727 1.505276 1.366929
-1.308948 0.624038 1.252358
-1.138551 2.080467 2.287403
-0.653674 1.546599 2.464367
-1.253624 0.579159 1.669664
-1.479820 1.617474 1.996981
-1.189180 1.622180 1.730907
-1.163104 -0.157718 -0.123816
-0.958072 1.175896 0.826863
-0.152551 0.869491 0.857685
-0.829523 0.384216 1.083273
-0.346368 1.537357 1.548350
-1.588379 1.073512 2.355896
-0.946754 0.927925 2.238556
-0.862997 1.102501 2.444070
-0.359293 1.389407 1.690063
-0.716592 0.605019 -0.075232
-1.451414 1.359180 1.742957
-1.140049 -0.085236 -0.065411
-0.442421 1.160711 1.561211
-0.437323 0.503365 1.241482
-0.952671 1.349044 1.061739
0.094634 0.592819 -0.348561
-0.846255 1.465491 2.903232
-0.355385 1.572811 1.520187
-0.862842 -0.251579 -0.201347
-1.028908 1.839375 2.068295
-1.294117 1.553929 1.714005
-0.147068 0.899746 0.121562
0.034664 0.589285 0.583782
-0.822458 1.175830 2.504029
0.434964 1.070970 0.107556
-0.836130 0.779164 1.971081
-0.692143 1.489030 2.593063
0.337871 0.743620 0.170087
-1.060389 -0.334304 -0.135324
-0.791281 1.815854 2.666588
-1.444902 0.604612 1.843698
-0.364395 0.866992 -0.069812
-0.812317 0.242871 -0.238222
-0.323335 0.249686 0.732374
-0.829386 1.045550 0.566770
-0.760954 -0.232404 -0.160963
-1.278230 0.959494 1.122526
-0.834316 0.475135 0.190361
-1.534603 1.085098 2.199279
-0.920708 1.812553 2.127264
-0.429988 0.815328 -0.138095
-0.979357 1.819577 1.906906
-0.577946 0.711930 1.672518
-1.354221 1.472942 1.677646
-1.663533 1.932649 2.277766
-1.292304 1.004624 2.651261
-1.339638 1.328660 1.521499
-1.615269 0.928377 1.907460
-0.562223 1.705466 1.996459
-1.799204 1.514634 2.317360
-0.709928 1.322543 2.309735
-1.281485 2.078539 2.241863
-0.728188 0.667605 1.638651
-0.479006 0.390871 1.123793
-1.002239 1.804011 1.879737
-0.408910 0.652052 1.344053
-0.928944 0.509887 1.519975
-1.305810 1.008635 2.418361
-0.198421 0.985011 0.373774
-1.039895 0.967837 2.313998
-0.854067 0.953660 2.208467
-1.477804 2.089599 2.325761
-1.235883 0.596448 1.150867
-0.682656 1.079274 0.496972
-1.441288 0.787910 2.022512
-0.469378 1.611798 2.007115
-0.353988 1.381914 1.430812
-0.351936 1.553084 1.650510
-0.980468 1.011691 0.664358
-1.402719 1.038219 2.193078
0.413271 0.983708 0.191083
-1.540879 0.866532 1.661877
0.068514 0.396990 -0.060295
-0.584550 1.291618 2.071543
-1.133018 1.740952 1.776046
-0.792597 1.702896 2.801339
-0.079859 0.218236 -0.680605
-0.558310 0.476690 -0.343003
-0.321277 1.117974 0.744222
-1.072401 0.964499 2.322233
-1.775921 1.574816 2.244013
-0.825244 0.975793 0.483719
-0.908203 0.533157 1.421780
-1.121259 1.773558 1.889608
-0.475000 0.032113 -0.359710
-0.100955 0.028850 -0.246682
0.041723 0.516095 0.547598
-0.173973 0.673955 -0.290013
-0.014580 0.741337 -0.220524
-1.109044 1.095727 2.784595
-0.748984 1.809315 2.419714
-1.465111 1.825971 1.955422
-0.113885 0.434835 0.676604
0.426748 0.830669 0.095737
-0.500018 1.357583 1.980890
-0.451656 1.044916 1.707909
-0.554677 0.215996 0.787533
-0.831796 0.717148 0.300960
-1.791596 1.472881 2.309331
-0.858311 1.945933 2.638237
-1.376164 0.923952 2.335797
-1.056609 -0.098332 -0.206355
-0.112927 0.391899 -0.466534
-0.809914 0.726728 1.881488
-0.056267 0.874043 0.085178
-0.215488 0.905092 0.028588
-1.068998 0.615031 0.767042
-0.543690 0.984432 0.309039
-0.728706 1.440747 2.389406
-0.207739 0.598866 0.803488
-0.872585 -0.024903 -0.312941
-1.314857 2.093792 2.277232
-1.399983 0.798458 1.280602
-0.716273 1.561571 2.283763
0.458011 0.945458 0.118492
-0.809059 1.154238 2.530876
-1.127642 0.536549 1.482203
-0.875977 1.500590 1.402452
-0.252912 0.023473 -0.658561
-0.138962 0.008629 -0.202015
-1.170467 1.546294 1.542776
-0.861867 0.363453 0.954750
-1.751279 1.472998 2.194348
-0.523057 0.675321 1.546396
-1.781080 1.744128 2.299206
-0.319367 0.222289 0.674423
-0.773407 0.268331 0.778216
-1.330821 0.593126 1.313562
-1.520299 1.374011 1.918437
-0.789490 0.070710 -0.339608
0.097317 0.354238 -0.361848
-0.946516 2.039626 2.537918
-0.816828 0.120779 -0.311075
-1.388449 2.067734 2.246450
-1.009577 -0.022125 0.132011
-1.025819 0.618256 0.630733
0.081587 0.400330 -0.178682
-0.718661 1.771660 2.356014
-0.923615 0.389289 0.863981
-1.375593 0.619552 1.766914
-0.765624 0.172433 -0.315538
-0.876996 0.401923 1.048148
-0.682653 1.448318 1.279749
0.023915 0.271334 0.091344
-1.316479 0.869119 1.153012
-0.599364 0.205024 0.693681
-1.460759 1.075641 2.731911
-0.593821 1.740594 1.755809
-1.501599 0.919951 2.200837
-0.747947 0.816470 1.815182
-0.860202 -0.226092 -0.009877
0.080364 0.648277 0.533590
-1.062478 1.933449 2.005032
-1.443808 1.083064 1.434978
-0.032042 0.878486 0.404528
-0.800435 -0.204535 -0.207202
-0.598979 0.917073 1.826617
0.290916 1.021078 -0.054375
0.218351 0.948637 -0.141462
-0.650973 1.575863 2.154115
-0.529586 0.563443 -0.284552
-0.626684 1.245997 2.146299
-1.663087 1.754561 2.112286
0.146305 0.459788 -0.028576
-0.429082 1.044569 1.581759
-0.985428 0.947989 0.646877
0.134554 0.321562 -0.428223
-0.432235 1.323716 1.188259
-0.699589 -0.176117 -0.202465
0.244676 0.538571 -0.017348
-0.630522 1.489308 1.305446
-0.739944 0.080606 0.318232
-0.444208 -0.018087 0.281943
-0.751959 1.209778 2.418168
-0.771525 0.404797 -0.132810
-0.307610 0.418260 0.993082
-0.609613 0.384968 1.166466
-0.462656 0.813820 -0.125760
-0.292150 1.085811 1.019434
-0.614653 0.229474 0.721037
-0.344750 0.506480 1.149252
0.047847 0.851246 0.360407
-1.244976 1.712757 1.834988
-0.730148 1.771698 1.800277
0.045015 0.066766 -0.261855
-0.715431 1.754645 1.693961
-0.815025 0.983180 2.196581
-0.868383 1.433153 1.162066
-0.915623 1.895703 2.129263
-0.682043 1.386051 2.290697
0.307654 0.998414 -0.120899
-1.002381 -0.145168 0.127542
-0.593720 0.489424 1.340920
-0.936346 -0.182036 -0.279240
-0.270240 0.682599 -0.282181
-1.537432 1.471753 2.017108
-0.818131 0.161171 0.296534
0.545966 0.903726 0.005749
-0.292353 1.630899 1.647424
-1.085347 1.439746 1.285542
-0.403962 0.411295 -0.451915
-0.552129 0.342190 1.077435
-0.462525 1.495931 1.911049
0.338735 0.887254 -0.223649
-0.882161 1.807450 2.136138
0.327970 0.668648 -0.116088
-0.684548 0.151407 0.474871
-0.630949 1.438210 1.290411
0.394833 1.023777 -0.061139
-0.266045 0.273511 0.806865
-0.625492 -0.118181 -0.235840
-0.157457 -0.053691 -0.308441
-0.850293 0.348924 0.332706
-0.167841 0.943851 0.517501
-1.275323 1.948314 1.994335
-1.063094 1.264285 1.044111
-1.224438 2.131110 2.368515
-0.298638 1.217219 1.272756
-0.822802 1.752366 2.221332
-0.973242 1.628434 1.500015
-0.636033 1.560671 2.401294
-1.199262 2.038757 2.164539
-0.612478 1.250402 0.782193
-1.522823 1.391606 1.959711
-1.068576 0.685648 0.690874
-0.198364 0.392670 -0.491465
-1.082797 1.280427 1.132052
0.452052 0.985954 0.170277
-0.106951 0.162884 0.200699
-1.181445 0.580267 1.075670
-0.486875 0.689330 1.512047
-0.767919 1.444553 2.745008
-0.343235 -0.093443 -0.506981
0.003284 0.800894 0.497953
-0.270192 0.096477 0.400103
-1.308425 1.088713 2.821436
-1.164968 -0.107247 -0.008477
-0.931348 0.426887 0.992490
-0.259018 0.050969 0.006310
-1.572482 1.129565 2.070348
-0.542268 0.162768 0.646565
-0.481149 1.227979 0.880983
-1.014816 0.002132 -0.032078
-0.794166 0.305629 0.896541
-0.731694 0.788671 0.167408
-1.062378 1.675648 1.648464
-0.634367 1.529648 2.417293
-1.063545 1.041709 0.816640
-1.050658 2.095356 2.455647
-1.597702 1.828310 2.087839
-1.635678 0.717099 1.753129
-1.628697 0.766005 1.755878
-0.818951 1.896665 2.282744
-0.976277 1.940601 2.039612
-1.311805 1.568456 1.740548
-0.671807 1.407219 2.232515
0.271495 0.566677 0.028264
-1.019416 0.519064 0.745293
-0.607377 0.476890 -0.301426
0.185411 0.487572 0.146495
-0.806483 0.533851 0.165386
-0.060097 0.432361 0.682027
-0.660778 1.084584 2.062135
-1.508594 0.719385 2.024295
-1.174250 1.524000 1.503368
-0.445240 0.023731 -0.257956
0.155964 0.594169 -0.280050
-1.627601 1.125535 2.222484
0.156706 0.768528 0.324035
-1.050892 0.926620 2.254196
-0.435940 1.444762 1.329864
-1.774736 1.790719 2.313580
-0.741035 1.630658 2.688882
-1.223837 1.817000 1.942192
-1.343028 0.951255 1.293470
-0.531348 0.738691 1.625881
-0.684896 1.030958 0.325918
-0.354076 0.141555 0.555133
-0.302930 1.229592 1.615728
-0.608777 0.868140 0.091536
-1.242010 1.948307 1.986006
-0.294734 1.115411 1.003867
-0.372709 0.662498 1.392464
-0.055404 0.319059 0.454334
-0.820233 1.890971 2.213821
-0.214313 0.752662 -0.248434
-0.265622 0.491309 1.035403
-1.390038 0.660109 1.358638
-0.967420 0.534120 0.567239
-0.916422 1.044815 2.427629
-0.383501 1.070528 1.615491
0.062190 0.179615 -0.531207
-0.313712 1.054199 1.272279
-1.676996 1.721681 2.107959
-1.647048 1.448486 1.984903
-0.401543 1.002175 0.522017
-0.394361 1.647995 1.822646
-0.496423 0.016548 0.340693
-0.759930 0.972914 0.454746
-1.067677 1.212206 2.931453
-0.500945 1.291916 1.947804
0.434474 1.100434 0.051232
-0.833985 -0.223105 -0.043026
-1.519796 1.118587 1.705895
-1.599236 0.864102 1.711346
-0.814594 0.462668 0.224515
-0.918077 1.709003 1.585352
-0.615368 1.808346 1.982870
-1.556742 0.711138 1.971240
-1.224674 1.788198 1.851603
-1.042636 -0.301096 -0.130001
-0.359353 0.016016 0.281204
-0.636064 1.414103 2.462138
-1.120212 0.792760 0.807870
-0.679182 0.807685 0.134275
-0.138992 0.617270 0.862734
-0.553851 -0.041494 -0.278408
-0.505771 1.171604 1.908024
-1.127789 1.368380 1.333430
-1.394078 2.086170 2.281444
-0.199126 0.941763 0.312053
-0.052452 0.887815 -0.018638
-0.059244 0.125740 -0.046227
-0.084417 0.153551 0.072183
-0.869204 1.398563 2.888381
0.005712 0.060187 -0.396337
-1.143015 1.892618 2.066125
-0.111183 0.488266 0.692636
-1.706491 1.254588 2.274433
-0.322367 1.040438 0.536648
0.492972 0.941510 0.128283
-0.502211 0.801978 1.630843
-1.213384 0.571254 1.666500
-0.894861 1.078682 0.689785
-0.795975 -0.125045 0.089285
0.393735 0.994296 -0.142580
-0.502056 -0.063224 -0.000150
-1.214125 0.964994 1.057600
-1.632811 1.124746 2.376338
-1.081119 0.789831 0.736858
-1.742699 1.892348 2.341752
-0.610848 -0.062245 -0.258264
-1.102275 1.459283 1.427820
-1.574203 0.821589 1.689026
-0.298812 0.949255 0.161712
0.189048 0.960284 0.163851
0.386076 0.756771 -0.151157
-0.427030 0.252558 -0.456819
-1.274138 1.219367 1.360626
-0.535802 1.366985 1.160192
-0.782830 1.846989 2.516981
-0.713338 1.436631 1.167927
-1.213100 0.584900 1.127578
-0.667034 0.421729 1.235568
0.058429 0.434734 -0.189774
-1.372525 0.740740 2.112066
0.061165 0.177022 -0.224968
-0.424829 0.157538 0.600666
-0.974275 1.909045 2.118715
-1.512626 0.926954 2.120137
0.070915 0.423419 -0.356895
-1.209396 0.548344 1.165704
-0.936324 0.960400 2.250469
-0.330486 0.111812 0.481162
-0.096830 0.266563 0.441259
-1.643364 0.875314 1.808707
-1.233192 1.017468 2.284417
-1.420696 0.946956 2.341691
-0.609147 1.784567 1.838692
-0.049932 0.815464 0.575361
-1.375002 0.679741 1.307757
-0.228650 0.211851 0.577164
-0.510211 1.222497 0.764875
-0.637351 1.561808 1.424106
-1.310536 1.372030 1.547531
-1.041085 0.571783 0.749607
-0.420760 0.025612 -0.455442
-1.468302 0.812487 1.953346
-0.728912 1.798037 2.143435
-1.442873 2.085811 2.312593
-0.767293 1.780663 1.837255
-0.629216 0.561863 -0.216395
0.092011 0.930160 0.007905
-1.268766 0.596401 1.272770
-0.959081 1.762470 1.832557
-0.828918 0.692096 0.278737
-0.976642 1.139108 0.807294
-0.376004 1.136190 0.678091
-1.014521 0.847416 0.608279
-0.808279 1.179507 0.695911
-0.167494 0.957448 0.299501
0.050332 0.420597 0.434684
-0.369950 -0.044938 -0.428362
-0.673756 1.547483 1.435316
-1.053589 1.041467 0.852612
-1.246827 0.678156 1.114352
0.061563 0.913996 0.137002
-0.802811 1.872413 2.526927
-0.744132 1.754269 2.241227
-1.251095 0.582300 1.725861
0.102889 0.811239 -0.176931
-0.822039 0.764038 0.320497
-1.535837 1.097715 1.764977
0.112254 0.462427 0.310664
-0.859634 0.665743 1.834502
-0.298662 0.953710 1.285354
0.150619 0.238561 -0.388366
-0.403583 0.768272 -0.200418
-1.038438 0.489928 1.165815
0.165260 0.462958 0.160642
-1.068697 -0.004467 -0.110586
-0.527610 1.535488 1.332885
-0.456279 1.602926 1.963681
0.206972 0.768733 0.304559
-1.455992 1.887977 2.009732
-0.492138 -0.023548 0.283193
-0.466360 1.158034 0.630868
-1.429394 1.113546 2.113566
-0.660493 0.724793 -0.026730
0.036565 0.656577 -0.329589
-0.104925 0.063226 -0.223272
-1.136607 0.752264 0.896227
-1.266731 0.567670 1.509946
-0.781942 0.649354 1.718725
-1.398250 1.090172 2.137393
-1.172501 0.574844 1.719409
-1.507878 1.291820 1.834873
-0.406833 1.615517 1.854795
-0.177930 0.305792 -0.565707
-0.728179 1.345552 2.486321
-0.150143 0.729857 0.961493
-0.345772 0.756695 1.365353
-0.319861 1.248246 1.141125
-0.672721 1.420634 1.189702
-0.871426 1.291839 0.915808
0.631443 1.028760 -0.061180
-1.271503 0.569955 1.456113
0.015249 0.480967 -0.320203
-0.122412 0.739277 0.780925
-1.212995 0.904629 1.066785
-1.277572 1.839517 2.030052
-1.448113 0.801863 1.368378
-0.186553 0.102465 0.146016
-0.362655 0.602104 1.279148
-0.727930 1.738708 2.188535
-0.726270 0.439101 1.325618
0.077245 0.435440 0.356318
-0.463497 0.288902 -0.455530
-0.944416 1.812592 1.860731
-1.157381 1.254662 1.232321
-0.731341 0.912220 0.282270
0.453713 0.777942 -0.033926
-1.128929 -0.197558 -0.185450
-0.677073 1.290054 0.903596
-1.512549 1.417333 1.918286
-1.075360 -0.336633 -0.215561
-1.364916 0.738180 1.999463
-1.258243 1.293094 1.366729
-0.597551 1.531427 2.171358
-0.530707 0.745042 -0.141047
-0.908400 0.083708 -0.043305
-1.553751 1.619191 1.997625
-0.522087 0.527596 -0.292599
0.280341 0.909631 -0.135548
-1.240220 0.819670 1.066333
-0.092900 0.022341 -0.315511
-0.969210 0.481732 0.650218
-1.196820 0.674178 1.908635
0.043809 0.301099 0.030030
-1.024679 0.694237 0.601542
-1.218342 1.502517 1.585543
-1.482932 1.267635 1.650416
-0.307796 0.103022 -0.627865
-1.776807 1.389726 2.335904
-1.527702 1.265531 1.856130
-1.034637 0.538247 0.872170
-0.457374 1.043436 0.518424
-1.574543 0.986789 1.785089
0.500038 1.044261 -0.108000
-1.844653 1.577053 2.422851
-0.790604 1.731967 2.007273
-1.097320 -0.123260 0.094638
0.155165 0.683568 -0.314246
0.180867 0.898314 0.270398
-1.141684 1.554082 1.451990
-0.888951 1.356681 1.024616
0.331746 0.955725 0.212398
0.004908 0.242823 0.096080
-1.663908 1.966022 2.313223
-0.810637 0.660585 1.774719
-0.878483 0.401260 0.435982
-0.883399 0.473702 0.400534
-1.612358 0.869506 1.757742
0.203584 0.883472 0.235420
-0.932481 -0.276623 -0.117813
-1.450258 0.961106 2.355449
-0.878624 0.228831 0.104073
-0.541423 0.907170 0.092235
-0.737594 0.904221 2.074796
-0.606792 1.493655 1.375889
-0.906683 -0.081529 0.110228
-1.343882 1.543622 1.744910
-1.837936 1.487226 2.453026
-1.650377 1.387675 2.076470
-1.074673 2.116167 2.418310
-0.451158 1.640194 1.960749
0.361282 1.069051 0.089659
-1.387404 1.629155 1.826984
-1.545483 1.024082 2.280089
-1.337345 1.414634 1.693900
-0.769499 1.836107 2.439220
-0.125058 0.534547 -0.352835
-0.086609 0.149962 0.016438
-0.997598 0.003902 -0.149286
-0.848015 1.299426 2.778503
-1.456977 1.190351 1.709207
-0.805408 0.351167 1.022331
-0.150134 -0.059522 -0.402726
-0.721708 0.985051 0.357219
-1.092873 0.536637 1.209171
-1.149698 1.718078 1.750356
-0.101946 -0.007714 -0.417932
-0.290329 0.470822 1.048204
-1.569281 1.078176 2.531447
-0.483621 0.935109 0.139983
0.063664 0.276936 -0.231994
-0.246023 0.057085 -0.679040
-0.072910 0.535814 0.668873
0.265441 1.035941 0.207034
-0.985467 1.137863 2.766277
-0.663746 0.757111 0.015356
-0.703424 1.591001 2.294959
-1.550525 1.306700 1.986979
-0.930614 0.489822 1.230747
-0.358763 1.184349 1.367922
-0.852960 1.765726 1.714157
-0.365701 0.788876 1.426761
-0.465875 0.785198 1.573136
-0.336349 1.247114 1.577371
-0.139216 0.233603 0.467536
-0.350381 1.632881 1.604510
-0.181663 0.956366 0.807867
-0.675368 1.404440 2.545676
-0.634298 -0.118255 -0.018482
0.144209 0.205302 -0.498055
-1.169284 0.698914 1.918734
-0.220574 -0.040455 -0.421123
-0.950649 1.280923 2.905504
-0.799131 1.483147 1.259048
-0.516618 1.780226 1.888685
-0.694417 1.788672 1.908029
-1.088979 1.051193 2.706947
-1.602906 1.360160 2.025502
-1.406113 1.875175 1.950816
-0.088535 0.166418 -0.014657
-0.693310 1.391159 2.572553
-1.341592 1.069611 1.362491
-0.906847 0.928935 2.210248
-1.392522 0.595648 1.352821
-0.522010 1.255231 0.937212
0.240647 0.627154 0.287606
-0.604059 0.322834 0.988459
0.194920 0.998282 0.060861
0.521089 1.050746 -0.040501
-0.800968 1.662359 1.489990
-0.883454 1.972013 2.617531
-0.651210 1.004715 2.021548
-1.078957 -0.057216 0.110676
-1.160500 2.128228 2.398766
-0.545345 1.694445 1.803719
-1.169800 0.598171 1.756860
-1.668944 1.204652 2.185614
-0.764071 1.368632 2.477410
-0.277889 0.526505 1.087302
-0.238975 0.265969 0.686453
-1.029253 0.664768 0.617237
-1.426850 2.072327 2.272612
0.383965 0.766635 -0.209865
-1.800250 1.664039 2.310600
-1.017464 -0.068243 0.133299
-0.970150 1.708292 1.684065
-1.064227 1.004744 2.614985
0.392722 1.141955 0.094538
-0.439107 -0.047414 0.136630
0.066606 0.080455 -0.439961
-1.798990 1.706369 2.323127
-0.963306 -0.296101 -0.206224
-0.842131 1.816054 2.020458
-0.116046 0.262010 0.475140
0.138084 0.893559 -0.097879
-1.574452 1.952174 2.200879
-1.638017 1.314555 2.125605
-1.095413 -0.309528 0.066652
-0.796581 1.679466 2.826696
-0.775093 1.609146 2.784226
-1.646852 0.860250 1.851308
-0.090088 0.107245 -0.065204
-1.266541 0.995423 2.631880
-0.862305 1.261520 0.864393
-0.284428 1.482198 1.506861
-1.203598 0.999165 2.639801
0.486878 1.047602 0.184878
-0.976274 0.811870 2.055818
-1.615775 1.369749 2.056321
-1.042512 1.250891 1.005074
-1.359289 2.089143 2.274328
0.293159 1.028634 0.183131
-0.652128 1.485752 2.390505
-0.023569 0.706195 0.615746
-0.875874 1.578033 1.413245
-0.667829 0.712800 1.695145
-1.761448 1.289335 2.609593
-0.548630 1.450712 2.079566
-0.466472 1.434965 1.940038
-0.151657 0.108382 0.089560
-0.353635 1.460308 1.423424
-1.317760 1.360195 1.579572
-0.787871 -0.178765 -0.224766
-1.119322 1.795296 1.922081
0.036414 0.303872 0.063206
-0.992787 1.154834 0.846279
-0.765718 1.148231 2.286195
-1.234817 0.548875 1.198821
-0.404679 0.294573 0.871203
-0.879078 0.254779 -0.058234
-0.765088 1.663078 1.489686
-0.344850 1.408279 1.663525
-0.985432 1.110785 2.433623
-1.084404 0.554192 1.435492
-0.366225 0.192620 0.644863
0.076123 0.145477 -0.507728
-1.025208 0.551014 1.618077
-0.210695 0.984710 0.574249
0.003016 0.416240 0.569815
-0.990060 -0.252524 0.035235
-1.648222 0.980625 1.820834
-1.540316 1.596663 2.029330
-0.295455 1.301794 1.606710
-0.801445 0.957066 0.410483
-0.014868 0.288723 -0.590820
-0.753572 1.192575 0.688171
0.032294 0.897811 0.153596
-0.464670 1.702113 1.646143
-1.834259 1.708230 2.398354
-0.257299 0.889287 -0.045884
-0.651038 1.228756 2.130557
-0.877340 0.365775 0.473589
0.071994 0.291232 -0.574690
-0.112611 0.056657 -0.145867
-1.297854 0.693299 1.161250
-1.521309 1.001263 2.266323
-0.614343 1.361148 2.142114
-1.531459 1.081744 1.699198
-0.429592 1.026183 0.501280
-0.848083 1.936100 2.396952
-0.538210 0.997016 1.835750
-0.838358 1.694520 1.549444
-1.385137 1.482184 1.778545
-0.013917 0.455871 0.571150
-1.611591 1.577718 1.956326
-0.616691 0.935712 1.904100
0.561653 1.015313 0.106711
-0.250957 0.286785 -0.572803
-0.851952 0.534499 1.556888
-0.874462 1.932008 2.202973
-0.434038 0.845949 1.586290
-0.129365 -0.015927 -0.394122
-1.225739 0.860188 1.057112
-1.191008 1.814339 2.068707
0.158667 0.202056 -0.385475
-0.369955 0.044809 0.352546
-0.081442 0.394534 0.595462
-0.360883 0.987469 0.357676
-0.287343 0.426873 -0.476722
-1.081380 0.566653 1.602265
-0.760228 1.056797 2.174975
-0.854776 1.461475 1.300849
-0.847656 1.619955 1.339376
-0.460478 1.667407 1.712614
-0.429877 0.655546 -0.286529
-0.193390 0.981403 0.751316
-0.590227 0.868784 0.154274
-0.792533 0.497134 -0.045773
-0.410374 1.142497 0.651434
-0.772792 1.838873 2.002620
-0.212692 0.871012 -0.098041
0.022175 0.430517 0.523249
-0.804528 1.847792 1.901417
-0.222219 0.995607 0.991873
-0.954661 0.015717 -0.065704
-0.521233 0.654435 -0.224225
-0.368407 1.689422 1.697181
-0.997240 0.993545 0.687638
-1.038779 2.044104 2.282117
-0.717740 0.923074 2.050777
0.424423 1.056236 -0.108422
-0.279868 1.027374 0.719406
-0.507382 1.005154 1.749590
-0.812992 1.095156 2.504987
-1.662956 1.432382 2.061421
-0.745024 1.133307 2.225348
-1.218261 1.796679 2.079903
-0.291572 0.001190 -0.029819
-1.080950 0.554731 1.533663
-1.621271 0.862331 1.893229
-0.857208 1.329466 2.822548
-0.516979 -0.092798 0.006936
0.310771 0.878606 -0.195529
-1.076087 0.931969 2.169629
-1.190301 1.655470 1.718662
-0.954140 0.755205 0.570952
-0.964781 1.047383 2.489246
-1.184612 0.904461 0.986352
-1.319784 1.829779 2.055228
