ply
format ascii 1.0
comment (C) Hongzhi Wu, Sep 2013.
element vertex 1701
property float x
property float y
property float z
end_header
-0.980699 -0.282344 0.016035
-0.926686 1.219565 0.851018
-1.646443 1.459775 2.061893
-0.742467 1.803505 2.438774
-1.035447 2.044244 2.297724
-0.093388 0.190583 0.327534
-1.597351 1.140811 1.984004
-0.848195 0.036164 0.197029
-1.115543 -0.070477 0.030377
0.301030 0.605248 0.102520
-0.557945 0.922194 0.152308
-0.905667 1.476721 1.254170
-0.703067 1.778523 1.818219
-0.529290 1.014684 1.919392
-1.660827 1.977081 2.506177
0.565888 1.051665 0.108884
-0.973907 1.771635 1.768814
-1.653039 0.701717 1.700713
-1.157321 -0.120092 -0.100553
-1.051700 1.980075 2.093216
-1.212374 1.888448 1.970725
0.011293 0.229443 0.099900
-0.487426 0.821769 1.684635
-0.389833 -0.050188 0.162913
-1.141672 0.868937 0.867037
-1.555313 1.336092 1.944262
-0.881339 0.258550 -0.067104
-0.867415 0.316502 0.822519
-0.174187 0.625737 1.016385
-1.445438 1.688789 2.007919
-1.215049 1.418701 1.428594
-1.301124 0.935446 1.138250
-0.279439 0.762136 1.280371
-0.881686 1.488867 1.275341
-0.341493 -0.055955 -0.384847
-0.536832 0.304337 1.044536
-0.448614 1.570974 1.961605
-0.545614 1.258837 2.032829
-1.147855 1.765730 1.862759
-0.644516 0.706701 1.716647
-1.091962 1.604406 1.546217
-0.953991 -0.206120 0.085789
-1.026243 0.616091 1.863741
-1.506618 1.683145 2.020410
-1.320296 1.236081 1.428642
-1.564321 1.797594 2.007303
-0.384865 0.524548 -0.389438
-0.274672 0.674185 1.228689
0.094968 0.126269 -0.255039
-0.825784 0.706614 0.272995
-0.934284 0.380558 0.688039
-0.559670 -0.111391 -0.169090
-0.765579 1.840830 2.220494
-1.389644 0.897587 2.298410
-0.443639 0.842326 -0.106298
-0.931118 0.940809 2.280022
-1.066002 -0.125358 -0.221374
-0.457842 0.910989 0.052983
-1.062908 0.783857 2.148015
-0.636784 0.151730 0.599038
-0.069755 0.198963 0.296121
-0.626538 1.536125 2.425332
-1.014557 1.949416 2.039348
-0.976313 0.584382 0.537729
-0.886260 1.980334 2.577247
-0.734086 -0.206834 0.009801
-0.068373 0.058341 -0.219616
-1.345049 0.814130 2.260629
-0.463863 1.320559 1.145527
-1.333682 1.042015 2.815223
-0.552131 -0.022341 -0.308327
-0.795231 1.877259 2.421973
-1.419690 1.140626 1.483957
0.302088 1.058662 0.141527
0.250824 0.998767 -0.061363
-0.228128 0.105512 -0.633031
-0.556228 -0.118157 -0.125547
-0.207196 0.461534 0.914319
0.174863 0.965825 0.198973
-1.433979 1.530221 1.823428
-0.582296 -0.117741 0.142717
-1.596003 0.929345 1.763568
-0.329008 0.796752 -0.206730
-1.643228 0.808313 1.711492
-1.355638 0.594769 1.799503
0.119494 0.399735 -0.150899
-0.302258 1.470652 1.554941
-0.678195 0.169077 0.602573
-1.111278 2.052731 2.243438
0.403347 0.878175 0.144142
-0.669069 0.414443 1.274269
-1.272708 1.891059 2.836107
-0.318362 1.470478 1.619303
-0.710955 1.693325 2.568950
-0.406438 1.414770 1.320064
-1.054693 1.762263 1.798225
-1.198811 2.149665 2.436530
0.375791 0.941431 -0.191242
-1.041550 0.496009 0.866922
-0.460917 1.197178 0.742819
0.112589 0.459269 0.361717
-1.038037 1.367481 1.166280
-0.521645 0.139632 0.611581
-0.514997 0.037233 0.387008
-0.717056 1.685010 2.602660
-1.574579 1.957970 2.579488
0.281645 0.778599 -0.260293
-0.769625 1.609941 1.436373
-0.828644 1.021307 0.508167
-1.294915 0.667952 2.016109
-1.320604 0.628718 1.958584
-0.399717 1.096185 1.744254
-1.287521 0.958096 2.286528
0.494496 1.080572 -0.030389
-0.893322 0.492872 0.411963
-0.666885 0.028615 0.328959
-1.330521 1.681883 3.029247
-0.683708 -0.183475 0.019152
0.056700 0.426116 -0.386364
-1.080208 0.560158 0.876443
-1.861243 1.550399 2.409930
-0.680244 1.443916 1.282820
-1.593052 1.038545 2.174266
-0.966602 1.104799 0.746973
-0.486309 1.501258 1.374376
-1.149430 1.432714 1.365136
-0.288356 0.404462 0.996562
-1.337349 2.165913 2.428483
-1.077993 0.544915 1.672142
0.194196 0.902352 -0.188096
-0.463174 0.228139 0.798500
-1.553550 1.169960 2.909488
-0.873747 1.900340 2.792382
-0.157748 0.697066 -0.290514
-0.907486 1.224389 2.838665
-0.200684 0.321514 -0.555875
-1.015935 1.990109 2.151590
-0.564135 1.635022 1.578202
-0.857325 1.792702 1.767865
-1.097630 -0.222270 -0.142189
-0.548039 0.735040 -0.143456
-1.444078 0.915714 2.345110
-0.954131 1.607426 1.491412
-0.964624 1.184105 2.858921
-0.955432 0.415109 0.687012
-1.188304 1.588317 1.638255
-0.138920 -0.059107 -0.427659
0.012418 0.930863 0.009004
-0.873307 0.292895 0.538129
-0.505221 0.067836 0.447764
-0.696224 1.710527 1.605412
0.050326 0.303516 -0.000838
-1.167747 1.122346 1.058367
-1.355446 0.540351 1.339936
-1.483794 1.048719 2.009325
-1.396803 1.497537 3.010839
-0.264803 0.308276 0.815163
-0.233005 0.172525 0.554235
-1.568731 1.327543 2.052303
0.207696 0.965639 0.243799
-1.148603 0.583190 0.956685
-0.168772 0.624034 -0.320902
-1.099718 0.952174 2.612961
0.373381 0.821636 0.130146
-1.102680 -0.366637 -0.163176
-1.122041 1.964273 2.021828
-0.857830 0.349886 0.376054
-0.358856 1.092843 0.615516
0.214619 0.493970 0.168023
-1.263857 0.897057 2.400543
-1.159667 0.865638 2.284671
-0.745284 1.312052 2.335001
-0.864640 -0.090063 -0.330594
-0.885609 0.307341 0.641606
-1.538040 0.575663 1.784887
-0.313591 1.381743 1.470149
-0.816066 0.312036 0.949695
-1.847160 1.647817 2.624794
-1.820529 1.514991 2.310119
-0.271916 0.182432 -0.643386
-1.450651 0.548410 1.620726
-0.362008 1.043587 0.504485
-1.047428 1.899024 2.051237
0.502016 0.882696 0.089483
-1.424296 1.871486 2.775635
0.602650 1.042291 0.001420
0.008965 0.743687 0.541893
-0.721921 1.654844 2.180096
-1.006424 1.829159 1.949710
-0.926608 0.623630 0.446118
-1.241819 0.968446 2.664919
-0.422768 1.036784 0.462074
-1.525099 1.058054 2.012414
-1.482189 1.041567 2.274765
-1.192730 1.764732 1.883752
-0.749109 0.019675 0.245535
-1.184255 0.591672 1.007806
-0.807779 0.017892 0.205910
-1.144843 1.161780 2.990644
-0.210158 -0.011326 -0.213099
0.095156 0.396220 -0.400920
-0.859287 1.715302 1.589730
0.170648 0.946890 0.248054
-1.093736 0.639638 0.798082
-0.451981 0.744793 1.569647
-0.113148 0.027109 -0.040559
-0.289980 1.097387 0.757087
0.045476 0.886331 -0.118161
-1.523372 1.295578 2.951638
-0.959371 1.127040 2.787391
-1.552037 1.082000 1.719344
-0.541874 1.730519 1.907354
-1.063396 0.873657 2.252975
-0.128611 0.766139 0.867816
-1.763352 1.578431 2.770337
-1.510730 0.505261 1.544422
-0.470456 0.472874 -0.389104
-0.685569 0.453111 1.389347
-1.084102 0.529847 1.453135
-0.072920 0.020072 -0.039043
0.308562 0.653090 0.226905
-0.166476 0.613422 0.984708
-1.460695 0.657949 2.019921
-1.178785 0.814163 2.233487
-0.928787 1.004927 2.595408
-1.050906 0.678989 0.639049
-1.864017 1.755103 2.439547
-1.300422 1.141444 1.320834
-1.161152 0.888716 2.312563
-0.750614 -0.120293 -0.307636
-1.017630 1.270190 3.008256
0.526455 1.087675 -0.040333
-1.016783 -0.327226 -0.128542
-1.381232 1.277182 1.536412
-1.454137 2.081932 2.488095
-1.496180 1.650674 2.025071
-0.756199 1.721271 2.714645
-0.639594 1.493064 2.485902
-0.936469 0.486370 1.357144
-1.664086 1.141185 2.738282
-0.324042 0.169559 0.624224
-0.692136 0.021464 0.302940
-1.460319 1.819775 1.924437
-1.259150 0.668387 2.019163
-1.778265 1.911496 2.413900
0.114732 0.186976 -0.281674
0.503681 0.971361 0.151030
-0.588871 0.867545 1.823178
-1.000567 1.726908 1.664967
-0.870636 -0.044069 -0.334346
-0.402652 0.577941 1.338117
-0.911666 1.695900 2.947836
-1.406712 1.008928 1.373777
-0.688229 1.477700 2.624012
0.159461 0.448629 0.261163
-0.818227 0.241404 0.531979
-0.386061 -0.063281 -0.463823
-0.867415 0.362176 0.407545
-0.995103 0.810983 2.147963
-1.788858 1.436578 2.753051
-1.166753 -0.137875 0.046683
-0.429404 0.357311 1.070626
0.333830 0.780026 0.213625
-1.038191 0.802525 2.167104
-0.865774 0.289037 -0.118491
-0.791541 0.556590 0.087324
-0.571955 1.171946 0.615860
-0.184755 0.096524 0.286495
-0.711019 0.834093 1.981318
-0.692034 1.704466 2.463117
-0.861194 0.489798 1.366886
-0.481731 0.208358 0.759341
-0.702102 0.109577 -0.361330
-1.458611 0.705441 1.430263
-0.922180 1.996575 2.382323
-0.841215 1.922103 2.620222
-1.053165 2.067494 2.346732
-0.704298 0.406703 1.273995
-0.583452 1.597965 2.111878
-0.184749 -0.025582 -0.178614
-0.964692 0.565723 1.747811
0.020402 0.005594 -0.387617
-0.761436 -0.127689 0.121629
-0.542389 -0.045368 0.278708
-0.181928 0.201770 -0.678588
-0.103679 0.907145 0.436686
-1.062788 1.443243 3.041170
-1.099436 1.380412 1.243143
-0.408678 1.736644 1.828257
-0.594859 0.471515 1.359137
-0.924942 0.458264 0.522016
0.461016 0.892713 0.131326
-1.025187 1.792528 1.846868
-0.875957 0.246538 0.092401
-1.155054 2.139713 2.582756
0.227691 0.586873 0.404532
-0.320307 -0.039744 -0.144869
-1.386281 1.447456 1.707578
-0.216519 -0.080394 -0.491652
-0.575526 0.303767 1.060805
-0.394810 1.375011 1.840270
0.049844 0.040753 -0.387596
-1.849484 1.667040 2.377744
0.031331 0.229317 -0.570240
-0.499940 0.611802 1.467423
-1.334285 1.202614 1.430624
-1.250238 2.169478 2.484808
-0.106673 0.662881 -0.314951
0.142584 0.592299 -0.283262
-0.691985 0.424621 1.310559
-0.907360 2.004606 2.600637
-1.526053 2.035833 2.506756
-0.234305 0.065766 -0.677049
-1.281494 0.754320 1.076779
-1.227828 1.300714 1.317349
-1.064485 -0.007350 -0.029473
0.199733 0.739821 0.308372
-1.772645 1.851210 2.604898
-0.700700 0.372275 1.178668
-1.433316 0.664443 1.425388
-0.387958 0.555724 1.299308
-1.373595 2.126115 2.476772
0.256861 0.896029 0.220390
0.050520 0.386402 -0.183477
0.000551 0.469652 0.633345
-1.006108 0.981314 2.504866
0.295328 0.620838 0.229127
-1.460394 0.794649 1.967757
-0.893122 0.321278 0.600473
-0.115410 -0.053883 -0.335817
-0.734073 0.190661 0.561989
-1.170913 0.937081 0.970327
-0.976185 0.942821 2.508139
-1.446695 0.961591 2.517178
-0.858214 -0.251518 -0.252554
-1.337374 0.944287 1.230635
-0.877838 0.309537 -0.075653
-1.599370 1.080821 2.656915
-0.852974 1.071969 0.574919
-1.472904 1.315263 2.975392
0.173675 0.288110 -0.449837
-0.504041 0.780595 1.673714
-0.358975 -0.089091 -0.514611
-1.185513 0.527992 1.122885
0.502117 1.056028 0.167137
-1.051661 -0.261215 -0.122326
-0.282102 1.120819 0.921588
-0.033446 0.917518 0.017794
-0.705629 0.714760 0.018266
-1.798146 1.339257 2.378591
-1.689692 1.159805 2.270063
0.335680 0.704066 -0.192127
-1.615964 1.473024 2.081840
-1.086807 0.489871 0.993242
-0.283979 0.969936 1.277170
-1.062040 1.624613 1.587524
-0.545521 1.305534 2.056834
-1.319588 1.369372 1.531157
-1.428357 0.591399 1.380140
-0.622153 0.889845 1.864317
-1.305048 1.847277 1.977878
-0.070574 0.103066 -0.026506
-0.533785 -0.034985 -0.278776
-0.901901 0.623857 0.417290
-0.371284 0.889198 1.515844
-0.883592 0.994020 2.521431
-0.014342 0.871790 0.403107
-0.699548 1.204858 2.533699
0.096486 0.706604 0.449599
-1.444968 0.526653 1.555146
-0.910342 2.005559 2.541562
-1.465184 0.627561 1.452998
-0.614370 0.075023 0.407329
-0.879190 1.970394 2.661082
-0.715903 1.231744 2.482501
0.070346 0.206164 -0.526115
-0.477841 1.519940 1.468373
-0.623520 0.542609 -0.243400
-1.647195 0.621579 1.751667
0.109354 0.597611 -0.322199
0.498434 1.031245 -0.068101
-0.634139 1.516318 2.460875
-1.543191 1.021431 1.689430
-1.478045 1.725611 1.938636
-0.156941 0.932312 0.289855
0.039262 0.322559 0.324420
-1.218993 0.615769 1.859225
-0.148263 0.232311 0.536130
-1.344646 0.553816 1.308586
-0.367625 0.388169 1.067247
-0.324915 1.339419 1.614899
-1.456450 1.734698 2.011452
-0.607285 0.995687 0.381503
-1.068925 -0.232511 -0.111180
-1.538338 2.091732 2.427917
-0.436589 1.278536 1.873659
-1.246599 0.926427 1.095661
-0.235644 0.661836 -0.300904
-1.174787 2.117501 2.600177
-1.488512 1.962831 2.138313
-0.359341 0.778670 1.444395
-1.258472 0.966902 2.470720
-0.812282 0.064498 -0.348939
-1.549935 1.009576 2.464519
-0.740212 1.375314 2.708117
-1.047904 1.852640 2.925290
-1.457926 1.639269 3.004805
-0.896795 0.819553 0.442349
0.052613 0.347322 -0.180651
-0.304380 1.457750 1.485600
-0.348320 0.906115 -0.022766
-0.352684 1.336438 1.714673
-1.263175 0.869972 2.424649
-0.824564 0.051361 0.217512
-0.432462 0.290405 0.926315
0.431678 0.795120 0.077691
-0.885515 0.365415 0.970484
-1.424167 2.057563 2.536371
-0.677393 0.654521 -0.078871
0.404644 0.755008 0.078015
-0.417280 1.327685 1.863966
-0.686142 1.723297 2.375284
-0.658451 0.268765 0.957880
-0.868424 -0.202646 -0.299454
-0.859541 0.249078 0.170474
-0.801579 0.464237 1.355861
-0.508329 0.395688 1.184366
-0.339697 0.183500 0.656826
-0.723714 1.333761 2.363230
-0.404902 1.075869 1.717000
-0.351472 0.614221 1.306134
-1.422404 0.981841 2.615615
-0.859473 0.831122 2.100753
-1.060423 0.723941 1.985788
-0.844609 0.345209 -0.129791
-0.678274 -0.191682 -0.020053
0.111441 0.494672 0.395880
-0.935712 -0.137723 -0.310365
-1.530337 1.996594 2.218837
0.504629 0.865240 0.056897
-0.453826 -0.072953 0.191408
-0.979267 0.062747 0.011999
-1.318683 0.817048 1.136914
-0.998157 2.079467 2.534917
-0.067458 0.899851 0.332443
-0.723451 1.166641 2.256953
-0.750107 1.667341 2.104593
-0.630392 0.355434 -0.327245
-0.286383 0.035394 0.025714
-0.440768 0.928188 0.086675
-0.400049 0.616579 -0.324356
-0.276529 1.099815 0.834131
-0.593267 0.338529 -0.366512
-1.168723 0.623461 1.863587
-0.695882 0.278254 0.977804
-0.769754 0.379296 -0.210130
0.194160 0.603626 0.440645
-0.272705 0.427632 -0.472195
-1.169080 2.054200 2.684820
-1.745890 1.792337 2.247891
-0.498346 0.902915 0.058237
-0.960298 1.762892 1.724660
-0.922845 0.744604 2.000829
-0.586881 1.330405 1.038787
0.258058 1.007286 0.204577
0.114155 0.598612 0.481850
-1.662227 1.135510 2.181063
-1.489140 0.857413 1.507337
-0.241183 0.391944 0.889365
-0.939340 1.216085 2.867237
-1.462149 1.782390 2.868846
-0.481327 0.919680 0.087818
-1.145167 1.062302 0.963298
-0.772528 0.748966 1.938173
0.451564 1.097312 0.178430
0.199604 1.000546 0.081903
0.153522 0.263709 -0.504690
0.314103 0.632169 0.198987
0.343269 0.653150 -0.119134
-1.016650 0.474839 1.157347
-0.313144 1.221150 1.131895
-1.145518 0.910890 2.334437
-1.358802 0.661500 2.062160
-0.822701 1.519954 2.925130
-0.668956 1.692807 2.372366
0.062123 0.215373 -0.214822
-1.133818 0.989224 2.690045
0.561653 0.912797 -0.049751
-0.828775 0.433441 1.262507
-0.564913 1.139570 0.563346
0.315890 0.673056 0.089198
0.086239 0.079638 -0.304506
-0.052863 0.888953 0.209270
-0.881363 0.188802 0.013805
-0.663054 1.133153 2.122463
-1.571456 1.924610 2.159768
-1.590881 1.788076 2.029762
0.014656 0.709466 0.545550
-1.178105 0.502723 1.348139
-0.329259 1.194868 1.041326
-1.023331 0.974196 2.616973
-1.522593 0.954175 1.918118
-1.415533 1.746049 2.019362
-1.258470 1.658091 3.027089
-0.734633 1.349677 2.326769
-1.538161 1.754926 2.861224
0.074622 0.373109 -0.003291
-0.911688 0.994372 0.553337
-1.686234 1.144283 2.331009
-1.405941 2.076330 2.269540
-0.579775 -0.029035 0.293227
0.373722 0.684933 -0.099293
-1.022423 0.628607 0.598955
-0.429650 1.048500 1.679429
-1.462285 0.501108 1.499765
-0.514164 -0.049865 -0.232785
-0.198495 0.997438 0.870057
-0.350149 1.004150 0.408313
0.106363 0.268107 -0.285949
-1.017786 -0.055357 -0.211753
-0.246557 0.065974 -0.624412
0.052912 0.287023 0.057656
-0.613740 1.695419 1.682958
-0.752530 1.632808 2.762688
-1.532477 1.652543 2.015926
-0.313197 1.220121 1.285456
-1.100328 0.910004 2.319305
-0.529613 0.587439 1.474647
-0.698179 0.238894 0.837335
-0.319274 1.287292 1.376595
-0.814295 1.174629 2.673071
-0.252603 0.690792 -0.280731
-0.899089 0.481094 1.307622
-0.313026 1.201463 1.073412
-1.339820 0.572968 1.733372
-0.440926 1.301434 1.162311
-0.678396 0.260048 0.914968
-1.131087 -0.270221 0.057169
-0.833611 0.272315 -0.198525
-1.585049 1.516970 2.931149
-0.162972 0.782088 1.025567
-0.613969 0.323394 -0.343461
-0.141938 0.089308 0.047022
-1.666410 0.817403 1.795537
-0.273277 0.057459 0.358187
-1.322875 1.044785 1.276270
-0.909816 1.853891 2.181499
-0.049819 0.740119 0.684195
-0.717615 1.775983 2.375990
-0.323660 0.150900 0.591691
-0.808188 -0.257091 -0.194048
-0.744222 0.534455 -0.114358
-0.794895 1.405460 1.110432
-1.185956 0.727313 0.979823
-0.622084 1.001307 2.024334
-1.010020 0.012553 0.057353
-0.370432 1.212608 1.726860
-1.682866 1.134640 2.542906
-0.657740 0.856986 1.877316
-0.731777 0.293965 0.998478
-0.775803 0.319993 1.031395
-1.162076 1.127606 2.939201
0.514534 0.856413 -0.011723
-0.831412 1.803041 1.889758
-0.338651 1.401732 1.641213
-1.703210 1.871265 2.618334
-0.162356 0.193912 0.495572
-0.813200 1.204924 2.699729
0.034238 0.449438 -0.367316
-1.104680 0.642727 0.842448
-0.382359 0.127064 0.574334
-1.621070 0.792029 1.925401
-0.023434 0.461343 0.662949
-1.541334 1.020042 2.192994
-0.368018 1.142546 0.711481
-1.597120 1.555610 2.001514
-1.431558 0.872501 1.340573
-0.577487 0.409757 1.242159
-0.415478 1.123770 1.799702
-0.246099 0.118506 0.477156
-1.636513 1.105981 2.658776
-0.811146 1.695461 1.552180
-1.298079 2.151578 2.400493
0.057581 0.243622 -0.484438
-0.681904 1.281128 2.555144
-0.748130 1.643671 2.277155
-0.057614 0.064323 -0.010821
-1.431584 0.942558 1.960501
-0.879289 -0.278934 -0.191021
-1.441616 1.127351 1.525596
-0.373617 1.055556 1.479716
-0.163207 0.931552 0.791039
-1.497584 0.590282 1.874033
-0.835383 0.422584 -0.042669
-0.927201 1.334036 2.975622
-1.809839 1.536237 2.278606
-1.795763 1.369605 2.743115
-0.644947 1.455891 2.409059
-1.123028 0.517814 1.327587
-1.633638 1.397676 2.896828
-1.387160 0.909364 1.289980
-0.487921 1.023265 1.866979
-0.764738 1.306277 2.445210
-0.104847 0.906554 0.196060
-0.347044 1.141563 0.753276
-0.914720 0.346683 0.671317
-1.456620 2.055895 2.520181
-1.018474 0.670993 1.919835
-0.965016 -0.289192 -0.242380
-1.173593 2.150901 2.463707
-0.883503 0.598297 1.794306
-1.235399 0.719678 2.101403
-0.333506 1.499558 1.709678
0.345835 0.810639 0.193954
-1.497913 1.154292 2.106604
-1.003782 1.761459 1.749010
-0.533857 1.277079 0.921126
-0.778199 0.448115 -0.149445
-0.705493 0.045272 0.324851
-0.873742 0.904634 2.215220
-0.152344 0.939661 0.492550
-1.027583 0.477520 1.076522
-0.852260 0.494566 1.429551
-0.997650 1.802696 1.866054
-0.861759 0.499211 0.295168
0.307869 0.592838 0.035273
-0.939531 1.965825 2.182675
-0.627279 1.604848 2.141467
-1.117291 1.283783 1.142625
-0.201097 0.075736 0.169456
-0.109434 0.914016 0.327749
0.563675 0.918364 0.023117
-1.134580 2.046551 2.714152
-0.781574 0.440033 1.328221
0.481322 1.126368 -0.060743
-1.368808 1.427316 1.644657
-0.493864 0.377003 -0.425489
-0.060882 0.879078 0.031390
-0.338955 0.237171 -0.570296
-0.652420 0.005393 0.308576
-0.822207 0.539976 0.178692
-0.961744 2.023959 2.376195
-0.222286 0.997484 1.023597
-0.114967 0.514707 0.751367
-0.763209 1.469368 1.269785
-0.914394 1.202529 0.817122
-0.490371 1.299871 1.081339
-1.379580 0.597799 1.827393
-0.944367 0.968175 0.570314
-0.518900 1.740664 1.828071
-0.736676 1.844040 1.983057
-1.085161 0.484126 1.035274
-0.398154 1.197074 0.875024
-0.253529 0.491404 1.051675
-1.112582 0.781408 0.768334
-0.641153 1.683681 1.587217
-1.466112 1.422977 1.782211
-0.418388 0.973001 0.206066
-1.673248 1.812871 2.160885
-0.796394 0.698138 1.885745
0.453234 0.993331 0.185101
-0.838315 1.926763 2.461474
-1.165835 -0.172218 0.048735
0.107783 0.439058 0.442174
-1.711678 1.219002 2.800404
-0.791019 1.746701 2.268206
-0.871149 1.071835 2.363409
-1.236631 0.509849 1.321051
-1.658321 1.104340 2.357392
-1.757603 1.244591 2.412423
-1.590205 1.692464 1.942870
0.267464 0.849326 0.217153
-1.350052 0.614600 1.290302
-0.560619 1.758695 1.825646
-0.852373 0.109838 -0.259038
-1.478964 1.821570 2.808952
-0.600872 1.791640 1.943510
-0.911963 -0.257201 -0.032853
-0.219384 0.254633 0.678814
-0.920519 0.985248 2.560280
-0.505296 1.688212 1.973121
-0.105913 -0.004473 -0.516621
-0.153146 0.550048 0.867996
-1.731199 1.324160 2.144375
-1.528972 1.974448 2.584061
-1.011043 1.435934 1.246148
-1.686762 1.491092 2.855986
-0.348897 1.300307 1.221679
-0.304559 1.010069 0.454306
-1.777945 1.910763 2.476353
-1.218442 1.569268 1.636038
0.375774 1.060462 0.203624
-1.621499 2.006116 2.309640
-0.147525 0.283616 0.617416
-0.543223 0.286095 0.998942
-0.147653 0.926126 0.713309
-1.816571 1.421864 2.345761
-0.467739 0.067725 0.455052
-1.089634 -0.184607 -0.231618
-1.538919 0.647110 1.906709
-1.611248 0.710025 1.646617
-0.827682 -0.232785 -0.254253
0.476380 0.851532 0.090235
-1.067194 0.533679 1.507176
-1.601671 1.248894 2.903233
-0.981785 1.194633 0.874370
0.107127 0.564236 0.488497
-1.502957 0.738063 2.128771
-0.037788 0.018346 -0.309133
-0.222140 0.978087 1.060946
-0.089289 0.874124 -0.025857
-1.206062 2.035806 2.687584
-1.491118 2.063538 2.490859
-0.772653 0.574529 1.664888
-0.204426 0.897561 1.092220
-1.235188 0.528502 1.641723
-0.028064 0.744747 -0.257486
-0.532663 -0.107741 -0.101992
-0.503732 1.705446 1.942085
-0.821250 0.342068 -0.180040
-1.488272 1.539213 1.946496
-1.107974 -0.330241 -0.199203
-1.406346 0.554891 1.547557
-0.880244 1.401895 1.114661
-0.892737 0.102554 0.145713
-1.652508 0.736749 1.705486
-1.608249 0.792651 1.688426
-0.548209 0.918383 1.809162
0.365793 1.032735 0.226925
-1.374640 1.153792 2.971318
-0.184706 -0.074612 -0.478757
-0.843062 1.674089 1.521447
0.072129 0.104678 -0.494175
-1.019899 0.727268 1.983770
-1.304604 1.715883 1.879685
-0.987844 1.295169 3.006884
-1.349289 0.520654 1.372350
0.230500 0.644318 0.413475
-0.957663 1.642677 2.983601
-0.408766 0.070282 0.457585
-0.260451 0.049827 0.325947
-1.153201 0.691734 1.977235
-0.702606 0.218494 0.749408
-0.237463 0.975759 1.124177
-0.782013 1.822900 2.641029
-0.754479 1.794208 1.914511
-1.379039 0.570873 1.636171
-1.265970 1.794489 1.993426
0.141983 0.426318 0.123712
-0.173700 0.533205 0.916220
-0.399335 1.434858 1.408918
-0.863869 0.466249 1.310778
-0.583589 0.711657 1.690022
-0.200220 0.370489 0.793012
-0.821779 0.081465 0.238633
-1.261796 1.227291 1.310355
0.610043 1.027540 0.041114
-0.195121 0.129252 0.425995
0.503970 0.982848 -0.009759
-1.825638 1.835754 2.408749
0.134104 0.925432 0.247893
-1.430307 1.234449 1.593334
-0.610085 1.596529 1.440531
-1.853391 1.777295 2.478315
-0.445540 0.142552 0.622859
-0.268481 -0.089481 -0.380762
-0.032022 -0.018867 -0.477951
-1.233401 1.913600 1.944930
-1.714318 1.847144 2.643083
0.227881 0.521513 -0.032923
-0.133518 0.618820 0.875841
-0.026159 0.635002 0.665797
-0.293605 1.065417 1.214922
0.046093 0.161610 -0.533355
-1.056102 0.932720 2.481989
-0.732556 1.716036 1.604133
-1.120600 0.810975 0.784795
-0.280143 0.796883 1.293849
-0.624920 0.490534 -0.284687
-1.190356 1.879503 2.042070
-1.107094 1.996151 2.794506
-0.931765 0.967419 2.308961
-1.441423 0.595661 1.904323
-0.610101 1.308906 0.945289
0.040167 0.277541 0.022155
-0.144276 0.928988 0.453491
-0.744213 1.733177 2.651492
-0.947736 -0.269788 -0.010743
-1.176962 0.690980 0.965506
-0.772164 0.595707 0.042872
-1.219038 0.893741 2.501707
-0.701419 1.491507 2.283333
-0.135636 0.535814 0.799831
-0.557572 1.215581 0.718613
-0.983500 0.463848 0.688326
-0.996186 0.705079 0.547647
-0.842733 0.333163 0.966822
0.557032 0.972451 0.111311
-0.156891 0.542555 -0.388697
-1.576505 0.719125 2.047365
-0.881413 0.071570 -0.269858
-1.130038 -0.177797 0.066178
-1.506189 1.174693 2.041016
0.041522 0.244786 -0.618074
-0.285795 1.023133 1.235224
-0.985935 0.494475 1.507500
-0.365987 -0.024937 0.103295
-1.242220 0.671820 1.035158
-0.904783 1.302657 2.914142
-1.102131 0.858208 2.271158
-0.816832 0.783341 0.311802
-0.697260 1.299718 2.592868
-0.945274 1.125113 2.513624
-0.858341 -0.257308 -0.056148
-1.427080 0.997512 2.657676
-0.766750 1.635175 1.460283
-1.239473 1.578139 1.665898
-1.457178 1.857219 1.967828
-1.006017 0.897618 0.608239
-0.838037 0.404229 0.140780
-0.814278 1.125682 2.623363
-0.070809 0.873450 0.064124
-1.142164 1.723162 1.753779
-1.642386 0.982906 1.880361
-1.005185 0.921381 2.518169
-1.438238 0.529667 1.428610
-1.075734 1.262888 3.028002
-0.809556 1.293245 2.771771
-1.151298 0.523983 1.668045
-0.779625 0.420077 1.285782
-0.365569 0.000497 -0.550745
-0.121277 0.882923 0.085999
-0.743919 0.661521 0.043477
-0.027580 0.126589 -0.099158
-0.339708 0.011401 0.304089
-0.010257 -0.037526 -0.453951
-0.413327 0.535145 1.309283
-0.702757 1.742652 2.411038
-1.448948 0.760809 1.350251
-1.012773 1.961839 2.073951
-0.324015 -0.097542 -0.454680
-1.336722 0.687656 2.108558
-0.322955 0.879907 1.400924
-1.732745 1.930989 2.524829
-0.161306 0.025750 -0.059276
-0.329235 1.179678 1.351712
-0.773015 1.319523 0.928182
-0.850719 0.207119 -0.110887
-0.594132 1.023405 0.417456
-1.101840 1.650030 1.658365
-1.113180 1.313817 1.175318
-1.133399 0.853866 0.836460
-1.651407 0.652953 1.775254
-1.276798 1.236862 3.023413
-0.751793 0.042905 0.271628
-0.585199 0.390716 1.213633
-0.983207 0.032198 0.068107
-1.099627 1.601930 3.023988
0.124024 0.401019 0.208505
-1.447638 0.849696 1.362227
-0.807325 1.870023 2.160256
-0.981022 1.369097 1.116782
-0.865895 0.930179 0.452112
-0.022050 0.840898 -0.150279
0.410610 1.054533 0.016958
-0.587438 1.755933 1.862459
-1.105007 -0.120634 -0.192351
-1.095606 1.549830 3.032238
-1.094371 1.858496 2.082368
0.535396 0.895076 0.046973
-0.442745 1.023430 0.435848
-0.302178 1.124487 1.197661
-0.888099 1.938672 2.198414
-0.918900 0.472437 1.470766
-1.253498 1.729824 1.845545
-0.126847 0.743845 0.841860
-0.035361 0.067776 -0.151713
-1.542698 0.836783 1.589973
-0.309485 1.221373 1.247027
-1.082754 1.684090 1.666720
-0.409618 0.986981 1.589898
-0.533474 1.601261 1.526734
-0.711180 0.138278 0.443368
-1.613352 1.107945 2.751657
-1.133977 0.515788 1.392096
-1.502292 0.626073 1.904138
0.192848 0.701609 0.350025
-0.805863 0.278061 0.803135
0.529333 0.997770 0.145606
-1.275513 1.186465 3.010589
-0.219986 0.945604 0.295340
-0.188771 0.773070 1.091301
-1.348471 1.538198 1.749671
-1.343874 1.232904 3.006961
-0.866185 0.952739 2.256139
0.216887 0.521100 0.207742
-0.275119 0.863430 1.289908
-0.916584 0.542931 0.449296
0.080894 0.091478 -0.255366
0.068561 0.284241 -0.217155
-1.120052 0.908718 2.533802
-1.058774 1.719177 2.983939
-0.828416 1.297258 2.802204
0.015015 0.427064 -0.405055
-0.427396 0.274090 0.885482
-0.728175 1.595323 2.081682
-0.102499 0.751782 0.762557
-0.683979 -0.029499 -0.335438
-0.251039 0.876861 1.230337
-1.012678 1.973526 2.106870
-0.756188 1.181877 2.322756
-1.592393 1.740364 2.849313
-0.821919 1.900681 2.284089
-0.544933 0.763183 1.703842
-0.656480 1.416523 2.548605
-1.083318 1.107760 0.907322
-0.620171 1.642737 1.524973
-0.363913 0.204471 0.706906
0.065545 0.437879 -0.345692
-0.922039 0.581764 0.447141
-0.860479 1.169804 0.720855
-0.371408 1.617192 1.578550
-1.328673 1.973520 2.060937
-0.819995 -0.258592 -0.072644
-0.729368 1.574380 2.318244
-0.328992 0.207567 0.693812
-1.686834 1.591192 2.023443
-0.518228 1.211524 0.731247
0.565847 1.035830 0.015479
-0.818126 0.495789 1.429858
0.194361 0.958315 -0.116029
-0.766073 1.786098 1.859095
-0.731634 1.771551 1.963563
-1.598902 0.617817 1.785905
-1.181597 0.515445 1.627362
-0.871293 0.303785 0.483283
-0.118431 0.461911 -0.410470
-0.476988 1.352816 1.249067
-1.380972 1.519745 1.771022
-1.767463 1.474840 2.182172
-0.920936 1.926461 2.802746
-1.191549 0.917826 2.333781
-0.838731 0.294821 0.797535
0.017007 0.217281 -0.618100
0.156734 0.819431 0.307552
-1.650611 1.566698 2.889016
-1.544819 1.338022 1.980456
0.614643 0.966552 0.011117
-0.133222 0.382707 0.701185
0.414445 0.911712 0.164375
0.182489 0.982111 0.161307
-1.866560 1.721624 2.513483
-0.591820 1.494081 2.175218
-1.032607 0.485061 1.360243
-0.367833 1.300831 1.744155
-1.819033 1.332296 2.505778
-1.616091 1.922857 2.601197
-1.063338 -0.253401 -0.267516
-0.054283 0.581523 -0.337251
-0.139408 0.213108 -0.691227
-1.660326 0.748721 1.738222
-1.483350 0.625288 1.950580
-0.168010 0.013850 -0.092853
-0.327209 0.959864 1.407101
-0.541781 0.863135 0.007086
-0.644066 1.772907 1.914814
-0.370256 1.128325 1.664655
-0.819579 1.902815 2.343149
-0.010686 0.128381 -0.133563
-0.761209 1.238869 2.656607
-0.870457 0.318513 0.093394
-1.451922 0.890310 2.141570
0.536906 0.882213 -0.039147
-0.508018 0.978726 1.784517
-1.547013 1.585562 2.039448
-0.238624 1.061780 0.944558
-0.697619 -0.208476 -0.046233
-1.262146 0.560652 1.749899
-0.963619 0.471878 1.143265
-1.708463 1.297991 2.092264
-0.031550 0.871998 0.439495
-0.846060 1.932734 2.579569
-1.094272 0.493288 1.124550
-0.114629 -0.022833 -0.407234
-1.608608 1.051943 2.423815
-1.068396 -0.074048 0.096588
-0.912442 2.010896 2.634322
-0.705515 0.264088 -0.321204
0.080700 0.383475 -0.440673
-1.461039 0.790755 1.370870
-1.692245 1.356740 2.026685
-1.294616 1.390236 1.511139
-1.031612 1.846289 2.105040
-0.175545 0.093257 0.189458
-1.021260 2.013265 2.216361
-1.505688 0.897555 1.562428
0.044172 0.702224 0.516039
-0.879335 1.835557 1.995165
-0.497925 0.662933 1.548414
-1.636007 1.126636 2.772562
-0.810512 1.498973 1.347056
0.382983 1.034598 -0.126945
-1.637779 1.697382 2.013264
-1.063711 1.469366 1.342945
-0.419796 1.705394 1.727981
-1.337678 1.111604 1.365952
0.008395 0.661885 0.589455
-1.379401 0.815695 1.235103
-0.685971 1.720984 1.640372
-0.868261 0.340274 -0.063494
-0.910530 1.945969 2.169311
-0.416891 0.668057 1.434301
-0.384711 0.966973 1.545281
-0.033098 0.056004 -0.192295
-0.878031 1.188337 0.761478
-0.420937 1.230378 1.823442
-1.317782 0.920122 1.164390
-0.553530 0.838822 -0.018013
-1.887754 1.575317 2.475637
-0.919824 2.000507 2.418761
-1.650166 1.109453 2.200380
-0.579408 1.668162 1.658334
-0.558547 1.314905 1.024203
-1.077570 0.742597 0.689007
0.045970 0.081645 -0.366963
-1.106662 1.523147 1.465434
-0.818600 1.773032 2.853620
-1.499280 1.571563 1.982531
0.096161 0.203360 -0.257330
-1.248604 0.660099 1.066678
-0.079970 0.729544 0.748387
-0.977259 -0.310773 -0.142087
0.189982 0.995178 0.127901
-1.385357 0.600068 1.866476
-0.220557 1.031047 0.889004
0.051570 0.183622 -0.196840
-0.337740 0.733523 1.378237
-0.482517 0.778730 1.643145
-1.138205 0.724371 2.068085
-0.713993 1.615343 2.655467
-0.890153 0.443615 1.215640
-0.801544 1.619196 1.450174
-0.877813 0.367822 0.440652
-0.943669 1.350920 1.058898
-1.297405 1.816774 2.917701
0.242706 1.000877 0.164820
-0.292851 0.702748 1.277219
-0.408038 1.500895 1.503140
-1.881787 1.683151 2.492530
-0.180080 0.892992 0.016675
-1.126493 0.555485 0.954121
0.003431 0.169544 -0.556771
-1.793038 1.859481 2.370049
-1.313543 0.532809 1.305083
-1.384952 0.977829 2.327441
-0.984296 1.012298 2.518714
-0.346476 1.156643 1.546169
-1.804591 1.413980 2.309759
-0.028964 0.869734 -0.118254
-0.731019 1.151397 2.510125
-0.902386 0.335776 0.632656
-0.615049 1.050718 0.450236
-1.381126 1.005517 2.355373
-1.737710 1.878915 2.589002
-1.070902 1.324078 1.138618
0.117199 0.188840 -0.416656
-0.583390 0.260028 -0.377043
-0.074795 0.028891 -0.244705
-0.056477 0.728874 -0.284517
-1.102383 0.721403 0.757586
-0.636990 0.987867 0.365732
0.631071 1.046928 -0.067704
-1.024035 1.063578 2.754905
-1.005378 -0.316258 -0.062970
-0.815942 1.107126 0.588697
-1.414930 1.754203 2.931779
-0.836284 1.055355 0.539729
-1.080784 2.025765 2.771281
-0.102005 0.062149 -0.548655
-0.950077 1.010640 2.358815
-1.311295 1.637626 3.026526
-0.818831 1.334635 0.966289
-0.399842 0.265165 -0.490025
-0.429535 0.066292 -0.465255
-0.125261 0.259901 0.537862
-0.806821 1.816658 2.781361
-0.953385 0.472814 1.176044
-0.402722 1.527034 1.527534
-0.339392 0.012676 0.015805
-0.881106 0.030097 0.187622
-0.294732 0.972146 1.309753
-0.426797 1.010937 0.404506
-0.813398 -0.013080 -0.343250
-0.223741 0.947466 0.246959
-1.434534 1.918067 2.709937
-0.942299 0.600526 0.468756
-0.171788 0.395694 0.772056
-0.780607 1.115158 0.574122
-1.840724 1.700716 2.365805
-1.272417 1.410786 1.483190
-0.454019 1.479945 1.436020
-0.811003 0.808402 2.046601
0.194460 0.593835 -0.238661
-0.719616 -0.181361 0.047671
-1.379660 0.965018 2.606434
-1.128281 1.015537 2.734581
-0.466027 1.010961 0.401381
-0.152811 0.355998 0.709348
-0.851747 0.282678 0.205441
-0.385538 -0.010615 -0.032770
-1.355651 1.695117 1.907385
-1.042143 0.924146 0.679994
-0.848153 0.579679 0.254291
-0.279243 0.433710 1.018170
-1.093962 0.532139 1.554009
-0.164832 0.930418 0.877237
-0.055140 0.217962 -0.599386
-0.651422 0.691477 -0.072230
-0.910294 0.426654 0.487837
-0.678055 1.691949 2.280101
-1.289999 1.704750 1.844056
-0.205120 0.011235 -0.087091
-0.315006 1.082494 1.270781
-0.843727 0.305943 0.845301
-1.697019 1.397661 2.019912
0.431321 0.984911 -0.161305
-1.129644 0.794158 2.176701
-0.811458 -0.225180 -0.003126
-0.820005 0.185908 0.341627
-0.697678 1.766671 1.956526
-0.439678 1.252098 1.036559
-1.307410 1.596396 1.770333
-0.899398 1.527741 1.396912
-1.071219 -0.028575 -0.136896
-1.091931 0.942756 2.485600
-1.576965 2.081838 2.376763
-0.733302 1.566586 2.152667
-0.750731 1.792397 2.543959
-1.545694 1.207399 2.162743
-1.029801 2.064162 2.379478
-1.596793 1.909715 2.629004
-1.437944 0.940843 2.459138
-1.657728 1.102948 2.398639
-1.043050 0.516197 0.814468
-0.823978 1.834751 1.953103
-0.044416 0.406877 0.651285
-0.387579 0.713749 1.442718
0.117227 0.255463 -0.538170
-1.027981 1.544032 1.463436
-0.377569 1.030069 1.506807
-1.634708 1.896545 2.194641
-0.941809 1.040090 2.381605
-0.857105 0.742133 1.985029
-0.698654 1.663169 1.521632
-0.756359 0.120660 0.351464
0.222760 0.885581 -0.206648
0.182596 0.967429 -0.081800
0.231047 0.862775 0.237898
-0.442526 1.220858 1.857846
-1.013435 0.539661 1.677567
0.154295 0.216733 -0.490583
-0.980094 0.468781 1.387517
-1.796547 1.889844 2.445219
-1.560010 1.000317 2.340154
-0.406247 1.213245 1.791393
-1.759048 1.268279 2.341592
-1.888500 1.498299 2.514413
-1.380848 1.711988 1.963117
-1.481457 0.993942 2.572000
-0.675044 -0.041784 0.213452
-0.449158 0.357074 -0.451534
-1.221879 0.946717 1.081197
-0.855407 1.510813 2.969007
-0.913610 0.414145 1.074059
-0.567809 1.415510 1.295043
-1.269513 1.061543 2.855219
-0.811776 0.337403 1.039783
-0.923067 -0.250070 -0.281354
-0.246004 0.660101 1.172003
-0.999729 0.759243 2.031184
0.560489 1.000535 -0.127578
-0.254314 1.086104 0.859432
-0.473604 1.253047 0.934114
-1.481363 1.444245 1.819219
-1.380545 1.267625 3.002065
0.253032 1.021988 0.012250
-1.430711 2.058855 2.251110
-1.436716 1.591081 3.002241
-0.777327 0.821962 2.040394
-0.660109 0.173716 0.644671
-0.537291 1.084031 0.495905
-0.643240 1.722086 1.965888
-0.699549 0.744821 0.038186
-1.287904 1.862708 1.945942
-1.725255 1.188530 2.436670
-0.998714 -0.289921 -0.257305
-1.176818 0.503126 1.518971
0.062799 0.855867 -0.185922
-0.011767 0.203422 0.126185
0.052973 0.325628 0.290413
-1.093162 0.921412 2.552603
-0.085246 0.037681 -0.529990
-0.900895 1.436394 1.191010
-1.632470 1.997384 2.496085
0.427974 0.763232 0.047042
-1.468018 1.021233 1.526555
0.149372 0.491140 0.327260
0.402604 0.732962 0.049211
-0.533496 -0.119264 0.022660
-1.650502 1.273975 2.128565
-0.720509 0.513913 1.514950
-1.025025 0.826555 0.607402
-1.579235 1.464592 2.933615
0.523374 1.005381 -0.029163
-0.384515 0.499607 1.221681
-0.468362 1.414947 1.284445
-0.843264 1.907974 2.209610
0.193117 0.578014 -0.208334
-0.291215 0.639689 1.234486
-0.667198 0.586766 1.580485
0.184871 0.256409 -0.517617
-0.759043 1.512602 2.790984
-0.245436 0.096084 -0.694622
-1.287033 1.440590 1.555771
-0.597407 1.766864 1.829479
-0.587816 0.064825 -0.368441
-0.343811 1.187404 1.640614
-1.760368 1.804035 2.278021
-0.385121 0.230343 0.767114
0.469204 1.090907 -0.008825
-0.150088 0.175945 -0.640419
-0.595563 0.922856 0.197995
-0.458521 1.023143 1.794930
-0.298268 1.581059 1.630704
-0.086432 0.177020 0.272634
-1.462607 0.993813 2.601074
-0.616377 1.688766 1.647273
-0.776572 0.072976 -0.356232
-0.947522 1.977639 2.214026
0.060395 0.368322 -0.470637
0.410621 1.150055 0.064717
-0.736108 1.367707 1.029000
-1.783465 1.547861 2.747761
-0.409602 0.709141 -0.253660
-1.844145 1.571679 2.657351
-1.063763 0.914427 2.532901
-1.548149 0.859062 1.626394
-1.443092 1.081239 1.482461
-1.811555 1.831031 2.376224
-1.207184 1.102330 1.114882
-1.181705 1.004135 1.018158
-1.047126 1.746797 1.732357
-0.989233 2.053886 2.439740
-0.254377 0.960745 0.292850
-0.587295 0.607513 -0.219869
-0.720411 1.789634 2.257323
-1.371738 1.465370 3.017149
-1.662180 0.787528 1.755275
-1.464435 0.779982 2.189354
-0.003423 0.825787 -0.174651
-1.566529 0.593662 1.731514
-1.083272 0.887495 2.284920
-1.085341 0.516219 1.293126
-1.098648 -0.229817 0.103467
-0.749919 -0.088832 -0.327344
-0.424189 -0.044860 -0.014089
-0.496144 0.234349 0.825319
-0.311901 1.357248 1.495110
0.215000 0.544078 0.244354
-0.682282 1.529942 2.596685
-0.124500 0.929373 0.559786
0.265864 0.531431 0.098087
-1.612562 1.682797 2.911962
-1.414204 0.883132 2.067759
-1.454619 0.999990 2.633911
-0.125450 0.805175 0.822483
-1.012382 1.707767 2.976031
-1.083890 -0.028070 -0.009830
-1.297817 0.990924 2.707910
-0.453582 1.054667 0.479712
-0.919137 1.163798 2.787450
-1.054671 0.587080 1.824393
0.088423 0.866664 0.325091
-1.536971 1.551998 2.024961
-0.569233 0.448112 1.290997
-1.718191 1.175169 2.578576
-0.488165 0.142388 0.621359
0.014945 0.668525 -0.324158
-1.195873 0.932107 2.495345
-0.594035 0.915643 1.854051
-1.018147 1.059427 2.467644
-0.930824 1.939747 2.105083
-1.587441 1.020630 2.237816
-0.618061 0.381851 1.202695
0.414462 1.049194 0.220255
-0.617555 1.662076 2.059958
-0.619694 1.454572 2.435355
-1.273882 2.083952 2.260862
-0.181654 -0.073007 -0.322416
-1.537022 1.199744 1.784516
-1.067087 2.060137 2.302825
-0.820403 1.744517 2.242081
-1.617602 1.102753 2.711143
-1.488295 0.944552 2.346198
-1.541667 0.959722 1.656134
-1.420406 1.834453 1.914294
-0.806662 0.548426 0.138508
-0.678525 0.827952 0.113990
-0.729520 -0.229327 -0.108705
-0.978754 1.527436 1.408383
-0.853828 1.279558 2.822886
-0.770492 1.336316 2.737931
-0.851262 0.611731 1.796011
-1.481317 1.981609 2.601775
-0.091547 0.705149 0.777051
-0.885017 0.251611 0.059203
-0.721451 0.443072 -0.228466
-1.188941 1.845905 2.941513
-0.878267 0.169565 0.108719
-1.079406 0.650715 0.721520
-1.311833 0.777562 1.127930
-0.220113 0.524749 -0.414689
-0.224986 1.025296 0.957060
-0.399773 1.730748 1.793557
-1.455801 1.134389 1.596352
-0.707657 1.528406 2.669948
-1.040277 -0.284930 0.062968
-0.017012 0.093847 -0.137833
-0.432067 1.553329 1.561633
-1.231561 2.150577 2.420595
-0.767821 1.574491 2.816336
-1.498635 0.569956 1.793969
-0.733560 1.530587 2.416292
-1.132517 0.762479 2.134452
-1.533934 1.064416 2.215805
-1.247139 2.036048 2.664066
-0.958884 0.614247 1.841737
-1.555273 1.038985 2.593397
-0.841030 0.265890 0.604468
-1.050261 2.114269 2.535626
-0.782337 1.210919 2.404052
-1.757999 1.563189 2.159706
0.304582 0.837255 0.186008
-0.440362 1.069825 0.513633
-1.713912 1.988344 2.431530
-0.509588 0.924752 0.111950
-1.032187 0.575062 0.660515
-0.924233 -0.089424 -0.311534
-0.606809 1.826698 1.954199
-1.242696 1.399882 1.442239
-0.120202 0.903378 0.164908
-0.727007 0.936008 2.115019
-0.935278 1.069744 2.402298
-0.548169 0.266550 -0.406496
-0.286371 1.000025 0.424645
-0.274842 0.213019 -0.627944
-0.400369 0.995253 0.322737
-1.068522 1.537197 1.469324
-1.453052 1.495612 1.816455
-1.490975 0.683190 2.000548
-0.877185 1.739993 1.643990
-0.307799 1.413851 1.507164
-0.289170 1.512298 1.564038
-1.720154 1.724368 2.797703
-0.544715 0.335036 -0.406652
-1.530621 1.277468 1.832372
-0.184321 0.917091 0.110419
-0.379231 1.180096 0.850189
-0.460616 0.342513 1.068784
-1.439372 2.039173 2.223884
-1.044371 0.478207 1.294879
-1.072226 -0.255092 0.095851
-0.804781 0.317436 0.985279
-1.337538 0.893583 2.330040
-1.687630 1.673475 2.858349
-1.094436 0.746139 2.071613
-0.854274 -0.226425 -0.275607
-0.066976 0.629970 0.715459
0.004985 0.468367 -0.355632
-0.620963 0.183401 0.691923
0.143127 0.541767 0.443436
-0.561759 -0.055093 -0.279455
-0.728292 -0.114004 0.147503
-0.880260 0.483847 1.336104
-0.888422 0.881623 0.447644
-0.281283 0.954958 0.190078
-1.108451 0.511835 1.220739
-0.577293 1.616437 1.510448
-1.337272 0.927176 2.533305
-0.721771 1.285402 2.625234
-1.050976 2.108613 2.626645
-1.365619 0.674925 2.093730
-0.738515 1.495067 1.366465
-1.472824 0.973048 1.523958
-0.599503 1.325982 1.006869
-0.509206 0.546416 1.412996
0.191087 0.259329 -0.466256
-0.336672 1.113045 1.317718
-0.889450 0.578096 1.759738
-0.741656 1.054784 2.195769
-0.476373 0.833306 -0.098652
-0.531393 1.144458 0.578720
-0.721567 1.773572 2.418243
0.401130 1.085691 0.027221
-0.823563 0.539950 1.575621
-0.676632 1.025088 0.424921
-0.435746 1.053347 1.793175
-1.372264 1.410153 3.015574
0.104648 0.498351 0.481241
-1.813740 1.846004 2.507054
0.070520 0.326919 0.145551
-0.467189 0.852970 -0.071478
-0.496495 -0.103535 0.025809
-0.963781 0.765241 0.508629
-1.148679 1.741143 1.784134
-0.269013 0.856481 -0.141111
-1.656426 1.807724 2.726495
-1.033878 1.831149 2.063936
-1.398077 1.681320 1.943891
0.366106 1.113081 0.033571
-0.523830 1.265195 2.005090
-1.464990 0.854256 1.861302
-0.622457 1.350503 2.187673
-1.287520 0.641574 1.161190
-1.724465 1.871694 2.280640
-0.843573 0.267364 0.353679
-0.181537 -0.013711 -0.144751
-0.782365 1.847796 2.538738
-0.428674 0.234769 0.798493
0.176654 0.654071 0.401318
-1.635856 1.078609 2.416807
-0.393052 1.692954 1.706319
-0.147659 0.158009 -0.670231
-1.729096 1.663706 2.805743
-1.380603 1.249049 1.515137
-1.644771 1.104162 2.587386
-0.150644 0.934951 0.246182
-1.556445 0.987738 2.238400
-0.594779 0.145023 -0.387911
-0.641504 1.094173 0.506846
-0.083367 0.471117 -0.392484
-1.820536 1.692798 2.321741
-0.355767 0.004393 -0.049323
-1.097842 1.609401 1.588715
-0.926020 0.715146 1.967059
-0.390578 0.841937 1.536173
-0.163206 0.565871 0.923460
-1.335695 1.026169 2.779263
0.301259 0.578836 -0.032807
-1.343066 1.006692 1.284736
-1.648786 1.272314 2.162716
-1.598955 0.591834 1.714788
-0.167056 0.956544 0.537020
-0.961433 -0.098221 0.137524
-1.559584 0.886277 1.685682
-1.292492 1.398865 3.033187
-1.168674 2.087391 2.297114
0.326887 0.831538 0.158647
-1.530670 0.963265 2.247332
-1.254323 1.259966 1.322765
-0.423349 -0.006126 -0.350159
-0.146399 0.634863 0.928297
-1.389948 1.662319 3.022783
-0.838773 0.397557 0.176578
-1.187657 1.481164 3.041792
-0.405392 1.596508 1.880525
-0.851351 1.766362 2.189878
-1.131545 1.848133 2.061377
-1.570670 1.267704 1.919726
-1.506215 1.137919 2.229401
-1.366454 0.951945 2.030820
-1.060985 0.633056 1.880670
-0.745733 0.825645 2.012999
-0.937293 0.052943 0.125009
-0.446332 0.922011 1.680725
-1.252757 2.108359 2.315106
-0.155763 0.361900 -0.518909
-1.231067 2.112249 2.575134
-1.263865 1.039542 2.812527
-0.135702 -0.045072 -0.498478
-0.480309 0.291153 0.960475
-0.427941 0.997259 0.344210
0.616470 1.005824 0.067767
-0.577385 0.372388 1.180986
-0.001912 0.633285 0.624198
-0.658076 0.053036 0.352764
-1.336612 2.144502 2.474016
-0.895990 -0.284504 -0.150361
-1.274973 0.965417 2.654926
-0.580299 1.308407 0.972365
-0.845383 0.190243 -0.142817
-0.807002 0.249749 0.736847
-0.032790 0.263322 0.364522
0.102329 0.100889 -0.281473
-0.077228 0.326739 0.552462
-0.845074 1.691186 2.917158
-0.821814 1.722390 1.603032
-1.336964 1.939238 2.007157
-1.475277 0.530431 1.454002
-1.703951 1.986640 2.469517
-1.208068 0.966177 2.659906
-0.961319 0.885668 0.538753
-0.768235 0.681864 0.127047
-0.952189 0.733334 0.489839
-1.504823 1.541295 2.971750
-0.066259 0.021337 -0.284615
-0.389232 1.211702 1.760862
-1.867003 1.742410 2.476090
-1.249751 1.823934 2.935416
-0.781048 0.073711 0.270256
0.120474 0.426013 0.003289
-1.061105 -0.345754 -0.096702
-1.138607 2.142343 2.476455
-0.731591 1.205946 2.298212
-0.002416 0.172477 0.006093
-1.244155 2.093457 2.283243
-1.433663 1.988770 2.619490
0.491346 1.115919 -0.016578
-0.145530 -0.064194 -0.309678
-1.521214 0.767283 2.140285
-1.369199 1.021292 2.756171
-0.867467 1.228544 2.794161
-0.674457 1.772979 1.876648
-0.213993 0.090177 -0.660841
-1.139412 1.994019 2.085749
-0.364516 0.065426 -0.557505
-0.821154 0.862411 2.126153
-0.838103 0.504986 0.209999
-0.930745 1.135595 2.767014
-1.474836 0.692760 2.039156
-0.805555 1.723443 2.181840
-0.657962 0.651390 -0.109564
-1.531852 1.291179 1.876737
-1.401682 1.867608 1.936266
-1.586058 1.985884 2.249927
-1.303359 0.886913 1.127451
-1.687675 1.436381 1.996545
-0.474823 1.021663 1.834378
-0.338679 1.178488 1.582396
-0.045863 0.646569 0.692014
-0.962058 0.058939 0.062265
-0.690430 0.453529 -0.250075
-0.686777 1.712139 2.417647
-1.335783 0.961824 2.370835
-1.019394 1.013932 2.675954
-0.376254 0.930567 0.048740
-0.647983 1.566124 2.357151
-0.154871 0.867908 -0.071304
-0.481779 1.505130 2.017661
-0.851445 0.306938 -0.147958
-0.329991 1.053392 1.352721
-0.728258 1.136306 2.237798
-1.776852 1.330348 2.306363
-0.819654 1.885618 2.189672
-0.358291 1.115935 0.659396
-1.064353 -0.300900 -0.256182
-1.519525 0.621977 1.863730
-0.878443 0.489920 1.515439
-1.422733 0.963728 2.171132
-1.097367 1.142266 0.958250
0.182231 0.801914 0.292008
-1.119352 0.676725 0.840103
-0.424142 1.390341 1.270075
-0.616632 -0.001983 -0.344219
-0.897048 -0.229691 -0.290330
-0.890598 0.691320 0.406974
-1.541509 1.517825 2.016101
-1.169935 0.958938 2.640924
0.313168 0.648994 -0.158332
-0.864133 0.454936 1.277298
-0.794745 1.496858 2.863297
-0.538481 -0.120100 -0.028211
0.022830 0.197061 -0.120142
-0.887641 0.601623 0.384834
-1.383034 1.040608 2.339411
-1.129061 -0.339772 -0.133827
-1.549989 1.243025 2.098894
-1.251124 1.589213 1.696095
-0.634388 1.457550 2.511523
-0.072892 0.894499 -0.083763
-1.721331 1.804388 2.694115
-0.661938 1.665390 2.400247
-1.324098 1.031088 2.383144
-0.745085 1.528534 2.759537
0.090270 0.800056 -0.242123
-0.151606 0.530601 0.836986
-0.849826 0.503706 0.249629
-1.798705 1.274243 2.691249
0.055877 0.874267 -0.149326
-0.216447 0.992598 0.561655
-0.857422 0.284402 0.169830
-0.432231 1.377550 1.913427
-1.177319 0.975258 2.673881
-1.453224 0.662988 1.455278
-1.891608 1.555581 2.562161
-0.540748 0.055771 0.407546
-1.125993 1.496434 3.040213
-0.981274 0.780238 2.063498
-0.376459 1.166820 0.787431
-1.538596 1.719572 2.906452
-0.897512 0.026604 -0.279737
0.127137 0.315044 -0.354735
-0.135867 0.758220 0.941702
-1.496735 1.061677 2.774192
-0.626755 1.585267 2.375891
-0.549116 0.883247 1.797503
-0.856019 0.618826 0.284141
-0.942242 0.408028 0.969269
-1.716875 1.289205 2.127424
-0.653121 1.786183 1.948612
-0.600973 0.865688 0.068286
-1.012936 1.076771 2.497856
-0.731494 1.714698 2.625598
-0.481215 1.040290 0.454318
-0.434916 1.758747 1.841358
-1.601474 1.109862 1.841601
-0.828210 1.493204 1.310255
-0.429741 -0.049829 -0.138128
-0.499395 0.331460 1.075624
-0.947179 -0.019104 0.155832
-1.656113 1.105475 2.511380
0.227951 0.573693 0.293791
-1.099812 0.972934 2.508297
-1.147585 0.839131 2.255669
-0.945477 1.443732 3.016230
0.036796 0.516165 0.604774
-0.400163 1.338871 1.835881
-0.835482 0.401653 0.211717
-1.595841 1.401540 2.921632
0.292917 1.049402 0.106786
-0.872037 0.628117 1.834553
-0.328150 -0.006911 0.243066
-0.584771 1.305463 2.112939
-1.107280 -0.045709 -0.036020
0.306099 0.946817 0.225250
0.278129 1.018515 -0.055766
0.230444 0.758875 0.283579
-1.488441 1.831198 1.964963
-0.843995 0.471539 1.341329
-0.082330 0.662323 0.755875
-1.398948 1.051401 2.302471
0.026078 0.915843 0.127478
-1.005567 0.997185 2.372505
-0.933373 0.438875 0.569519
-0.984520 1.746220 1.694983
0.379975 1.076671 -0.075655
-0.672517 -0.180491 -0.181737
-0.870264 1.341460 2.900566
-0.273922 -0.010734 -0.614152
0.072807 0.848192 0.350122
-1.463188 1.504180 1.850965
-0.560922 1.577389 1.455882
-1.560839 1.140158 2.235665
-1.012021 0.525398 1.602297
-1.067693 1.104308 2.848853
-0.923891 1.886536 2.840015
-1.575009 1.464453 2.065719
-0.304077 -0.013454 -0.635427
-0.314324 1.128984 1.233955
-0.428521 1.095339 1.816139
-0.930096 0.539814 1.694342
-0.345510 1.561493 1.517953
-0.848441 0.399048 0.247891
-0.619304 -0.052096 -0.320461
-0.317752 0.977203 1.376320
-0.635357 1.016623 0.414969
-0.790725 -0.049974 -0.337824
-0.406486 0.944192 0.118973
-0.154364 0.930128 0.420569
-0.990839 -0.000517 -0.164306
-1.407858 1.630602 1.888800
-1.506249 1.415456 2.967818
-0.403336 0.087108 0.493791
-1.556069 1.494122 2.038934
-1.448828 1.091349 1.515032
-1.558831 1.260740 2.070995
-1.560675 1.245873 2.152140
-0.621580 0.166075 0.646471
-0.853671 1.928442 2.717164
-1.495346 1.381529 1.826449
-0.589543 1.292367 0.910233
-0.501795 0.743981 1.637585
-1.754722 1.328945 2.221314
-1.406797 0.601675 1.904334
-1.589168 1.105406 2.143495
-1.195954 1.803149 2.992545
-0.713676 1.453574 2.357301
-0.686854 1.676992 2.490407
-0.442997 0.180018 -0.455498
-0.374793 1.639109 1.805177
-1.103116 0.840846 2.240469
-1.679690 1.561640 1.996334
-0.517682 0.998848 1.889512
-0.123257 0.319988 -0.555455
0.125550 0.922865 -0.099994
-0.835793 0.212115 0.293503
-1.591981 1.363994 2.121825
-0.852868 1.817514 2.850299
-0.206904 0.963661 1.018834
-1.462003 0.597976 1.407352
0.540770 0.890165 0.007490
